-0.648926 0.327764 -0.324553 0.600000 0.000000 0.300000
-0.115174 -0.452612 -0.044662 0.800000 0.200000 0.500000
-0.668222 0.222921 0.298728 0.000000 0.500000 0.500000
-0.155652 -0.032852 0.298728 0.000000 0.500000 0.500000
-0.666775 -0.413227 0.292467 0.500000 0.000000 0.500000
0.373456 0.311262 -0.279562 0.600000 0.000000 0.300000
0.562605 0.319019 0.292428 0.600000 0.000000 0.300000
0.305530 -0.401194 0.258238 0.500000 0.000000 0.500000
0.443110 0.214356 -0.298844 0.600000 0.000000 0.300000
0.315929 0.395791 0.037431 0.000000 0.000000 1.000000
-0.451792 -0.228656 -0.279562 0.600000 0.000000 0.300000
0.286263 -0.019136 -0.298844 0.600000 0.000000 0.300000
0.250636 -0.452612 -0.268919 0.800000 0.200000 0.500000
0.309150 -0.335187 0.330992 0.600000 0.000000 0.300000
0.028566 0.351270 -0.279562 0.600000 0.000000 0.300000
-0.178717 0.395791 -0.210531 0.000000 0.000000 1.000000
-0.035950 -0.236048 0.292467 1.000000 0.000000 0.000000
-0.344826 -0.370796 0.292428 0.000000 0.500000 0.500000
-0.577832 0.395791 0.020441 0.000000 0.000000 1.000000
-0.141395 -0.424601 -0.279562 0.600000 0.000000 0.300000
0.086912 0.395791 -0.265628 0.000000 0.000000 1.000000
0.083909 0.128886 -0.298844 0.600000 0.000000 0.300000
0.811204 0.347151 0.125418 0.600000 0.300000 0.000000
0.752494 0.421500 -0.173845 0.000000 0.000000 1.000000
-0.506360 -0.379237 -0.279562 0.600000 0.000000 0.300000
0.214855 -0.053039 0.298728 0.600000 0.000000 0.300000
0.185416 0.153813 0.331031 0.600000 0.000000 0.300000
0.564928 0.216776 0.298727 0.600000 0.000000 0.300000
-0.769910 0.111072 0.285787 0.500000 0.500000 0.000000
0.075325 0.284050 -0.279562 0.600000 0.000000 0.300000
-0.088996 -0.478321 0.283894 0.500000 0.000000 0.500000
-0.509960 -0.452612 -0.197030 0.800000 0.200000 0.500000
0.365880 0.375373 -0.324553 0.600000 0.000000 0.300000
0.198463 -0.154936 -0.298844 0.600000 0.000000 0.300000
-0.667470 0.442624 0.292467 0.000000 0.500000 0.500000
-0.372758 0.240061 0.317224 0.000000 0.500000 0.500000
-0.808473 -0.127647 0.058735 0.300000 0.000000 0.600000
0.686145 0.395791 0.187117 0.000000 0.000000 1.000000
0.390591 -0.425240 0.292467 0.500000 0.000000 0.500000
-0.255970 0.385486 -0.324553 0.600000 0.000000 0.300000
0.266778 -0.452612 -0.094148 0.800000 0.200000 0.500000
-0.227493 0.302046 0.330992 0.000000 0.500000 0.500000
-0.413463 -0.368474 0.292428 0.000000 0.500000 0.500000
0.460658 -0.152077 -0.298844 0.600000 0.000000 0.300000
-0.550238 -0.332976 -0.279562 0.600000 0.000000 0.300000
-0.055638 -0.426903 0.151594 0.800000 0.200000 0.500000
0.101376 -0.430506 0.253903 0.500000 0.000000 0.500000
0.380009 -0.070529 -0.298844 0.600000 0.000000 0.300000
0.000932 0.333609 -0.324553 0.600000 0.000000 0.300000
-0.050154 0.421500 -0.003273 0.000000 0.000000 1.000000
-0.075762 0.126484 0.258495 1.000000 0.000000 0.000000
0.338503 0.045484 -0.279562 0.600000 0.000000 0.300000
-0.253964 -0.313984 0.319410 0.000000 0.500000 0.500000
-0.808473 -0.083223 0.216505 0.300000 0.000000 0.600000
-0.132403 0.241379 -0.279562 0.600000 0.000000 0.300000
0.690573 0.395791 0.038177 0.000000 0.000000 1.000000
0.087348 -0.111135 0.292428 0.600000 0.000000 0.300000
-0.063605 -0.429462 0.253903 0.500000 0.000000 0.500000
-0.121711 -0.386165 -0.324553 0.300000 0.600000 0.000000
0.016397 0.421500 0.075136 0.000000 0.000000 1.000000
-0.414783 0.395791 -0.291350 0.000000 0.000000 1.000000
0.783999 -0.426903 -0.131320 0.800000 0.200000 0.500000
0.836913 0.246443 0.094266 0.600000 0.300000 0.000000
-0.199731 -0.425814 0.316978 0.000000 0.500000 0.500000
-0.834183 -0.465596 0.149995 0.300000 0.000000 0.600000
-0.492071 0.048293 -0.298844 0.600000 0.300000 0.000000
-0.267697 -0.072170 0.298728 0.000000 0.500000 0.500000
0.581536 -0.426903 -0.004521 0.800000 0.200000 0.500000
0.836913 0.046807 -0.320023 0.600000 0.300000 0.000000
0.195053 -0.426903 -0.201456 0.800000 0.200000 0.500000
-0.699084 0.421500 -0.143223 0.000000 0.000000 1.000000
-0.472065 0.156931 -0.298844 0.600000 0.000000 0.300000
0.516650 0.415761 -0.298844 0.600000 0.000000 0.300000
-0.780664 -0.420223 0.323970 0.000000 0.500000 0.500000
-0.834183 0.124160 -0.274198 0.300000 0.000000 0.600000
0.034021 0.349549 0.292428 0.600000 0.000000 0.300000
-0.487201 0.421500 0.014182 0.000000 0.000000 1.000000
0.526390 0.137135 -0.298844 0.600000 0.000000 0.300000
-0.338083 0.234989 -0.298844 0.600000 0.000000 0.300000
-0.029618 0.323824 0.292467 1.000000 0.000000 0.000000
-0.785554 -0.443601 0.253903 0.500000 0.500000 0.000000
-0.834183 -0.156943 -0.030495 0.300000 0.000000 0.600000
0.136424 0.395791 -0.178848 0.000000 0.000000 1.000000
0.183151 0.421500 -0.203917 0.000000 0.000000 1.000000
-0.361368 0.409968 0.292467 0.000000 0.500000 0.500000
-0.435419 0.126475 0.298728 0.000000 0.500000 0.500000
0.326856 -0.426902 0.313322 0.600000 0.000000 0.300000
-0.257954 0.227509 0.298728 0.000000 0.500000 0.500000
-0.426093 -0.227270 0.331031 0.000000 0.500000 0.500000
-0.583609 -0.157599 0.331031 0.000000 0.500000 0.500000
-0.217369 0.421500 0.241782 0.000000 0.000000 1.000000
0.812123 0.145111 -0.324553 0.600000 0.300000 0.000000
-0.073481 -0.144782 0.253903 1.000000 0.000000 0.000000
0.558033 -0.452612 -0.216383 0.800000 0.200000 0.500000
0.635710 0.421500 0.245064 0.000000 0.000000 1.000000
0.711545 0.406409 0.292467 0.000000 0.500000 0.500000
-0.791101 -0.328680 0.253903 0.500000 0.500000 0.000000
0.402027 0.347214 0.330992 0.600000 0.000000 0.300000
0.042425 0.086796 -0.298844 0.600000 0.000000 0.300000
0.486592 0.140407 0.331031 0.600000 0.000000 0.300000
-0.622655 -0.432976 -0.324553 0.300000 0.600000 0.000000
0.470332 -0.287407 0.298728 0.600000 0.000000 0.300000
-0.355537 0.115256 0.331031 0.000000 0.500000 0.500000
-0.148279 0.395791 0.006917 0.000000 0.000000 1.000000
-0.669794 0.355294 0.292428 0.000000 0.500000 0.500000
0.811204 -0.378994 -0.133748 0.600000 0.300000 0.000000
-0.529018 0.395791 0.116097 0.000000 0.000000 1.000000
0.378860 0.395791 0.013990 0.000000 0.000000 1.000000
-0.092537 0.395789 0.303515 0.000000 0.500000 0.500000
0.836913 -0.243307 -0.028136 0.600000 0.300000 0.000000
0.665547 0.421500 -0.137904 0.000000 0.000000 1.000000
0.023239 -0.470957 0.292467 0.500000 0.000000 0.500000
0.222991 0.345530 -0.279562 0.600000 0.000000 0.300000
0.719746 0.293765 -0.324553 0.600000 0.000000 0.300000
0.658277 -0.223763 -0.279562 0.600000 0.000000 0.300000
0.248751 0.395791 0.236904 0.000000 0.000000 1.000000
-0.326034 0.368457 -0.279562 0.600000 0.000000 0.300000
0.129243 -0.216936 -0.279562 0.600000 0.000000 0.300000
-0.619313 -0.426903 -0.111404 0.800000 0.200000 0.500000
-0.356109 -0.452612 -0.091829 0.800000 0.200000 0.500000
0.726983 -0.242069 0.292428 0.600000 0.000000 0.300000
-0.060759 -0.085929 0.330992 0.000000 0.500000 0.500000
0.729083 0.185052 0.292428 0.600000 0.000000 0.300000
-0.739093 0.395791 0.252254 0.000000 0.000000 1.000000
-0.510290 -0.424760 -0.324553 0.300000 0.600000 0.000000
0.474143 -0.392863 -0.324553 0.300000 0.600000 0.000000
0.057288 0.271250 0.330992 0.600000 0.000000 0.300000
0.579687 0.395791 -0.167728 0.000000 0.000000 1.000000
-0.621887 -0.058339 -0.298844 0.600000 0.000000 0.300000
0.308688 0.390449 -0.324553 0.600000 0.000000 0.300000
0.836913 -0.199208 -0.291495 0.600000 0.300000 0.000000
0.345785 0.421500 0.248559 0.000000 0.000000 1.000000
-0.667314 -0.193900 0.298728 0.000000 0.500000 0.500000
-0.288817 0.395791 0.132769 0.000000 0.000000 1.000000
0.049039 -0.072447 -0.298844 0.600000 0.000000 0.300000
0.634548 -0.365888 0.292428 0.600000 0.000000 0.300000
0.651444 -0.456439 0.253903 0.500000 0.000000 0.500000
0.169686 -0.426903 0.094283 0.800000 0.200000 0.500000
0.300596 0.421500 -0.144731 0.000000 0.000000 1.000000
0.238852 0.320308 -0.324553 0.600000 0.000000 0.300000
0.036595 -0.374241 -0.279562 0.600000 0.000000 0.300000
-0.028654 0.395791 0.223550 0.000000 0.000000 1.000000
0.652501 0.421500 -0.236240 0.000000 0.000000 1.000000
0.425149 -0.452612 0.234239 0.800000 0.200000 0.500000
0.765504 0.144999 -0.298844 0.600000 0.000000 0.300000
0.189570 -0.157366 0.298728 0.600000 0.000000 0.300000
-0.696881 0.421500 -0.270742 0.000000 0.000000 1.000000
-0.834183 0.294563 0.017913 0.300000 0.000000 0.600000
0.536168 0.015756 -0.298844 0.600000 0.000000 0.300000
0.456779 0.395791 -0.148708 0.000000 0.000000 1.000000
0.258701 -0.426903 0.086084 0.800000 0.200000 0.500000
0.326694 0.137758 -0.298844 0.600000 0.000000 0.300000
-0.282753 0.149599 -0.279562 0.600000 0.000000 0.300000
-0.810309 -0.096036 -0.324553 0.300000 0.000000 0.600000
-0.268335 -0.426903 0.047642 0.800000 0.200000 0.500000
0.592881 0.049363 0.331031 0.600000 0.000000 0.300000
-0.550713 -0.203734 -0.298844 0.600000 0.000000 0.300000
0.836913 0.080599 0.155059 0.600000 0.300000 0.000000
0.086340 -0.231262 0.330992 0.600000 0.000000 0.300000
-0.562849 -0.104774 -0.298844 0.600000 0.000000 0.300000
-0.120609 -0.229148 -0.298844 0.600000 0.000000 0.300000
-0.282824 0.346257 0.292428 0.000000 0.500000 0.500000
0.174937 -0.332196 -0.324553 0.300000 0.600000 0.000000
-0.633645 -0.452612 -0.012061 0.800000 0.200000 0.500000
0.811204 -0.403550 -0.271722 0.600000 0.300000 0.000000
0.744020 -0.426903 0.211365 0.800000 0.200000 0.500000
-0.242312 0.097906 0.331031 0.000000 0.500000 0.500000
-0.349869 -0.181267 0.298728 0.000000 0.500000 0.500000
0.132515 0.305879 -0.324553 0.600000 0.000000 0.300000
0.515435 0.421500 0.116415 0.000000 0.000000 1.000000
-0.667188 -0.090061 0.298728 0.000000 0.500000 0.500000
0.241042 -0.337751 -0.279562 0.600000 0.000000 0.300000
0.836913 0.407911 0.009156 0.600000 0.300000 0.000000
0.460390 -0.030920 0.331031 0.600000 0.000000 0.300000
0.232190 0.014076 -0.279562 0.600000 0.000000 0.300000
0.184211 0.218038 0.327393 0.600000 0.000000 0.300000
0.326187 0.421500 0.137012 0.000000 0.000000 1.000000
0.255105 0.210319 0.331031 0.600000 0.000000 0.300000
-0.808473 0.073864 -0.140713 0.300000 0.000000 0.600000
-0.808473 0.311595 0.160426 0.300000 0.000000 0.600000
0.396602 0.421500 -0.288035 0.000000 0.000000 1.000000
0.366911 -0.262817 -0.298844 0.600000 0.000000 0.300000
-0.368956 -0.452612 -0.205242 0.800000 0.200000 0.500000
0.794633 -0.105161 -0.279562 0.600000 0.000000 0.300000
-0.419421 0.083809 -0.279562 0.600000 0.000000 0.300000
0.572514 -0.171641 0.298728 0.600000 0.000000 0.300000
0.092929 -0.409049 -0.324553 0.300000 0.600000 0.000000
0.217601 -0.441188 -0.324553 0.300000 0.600000 0.000000
0.811204 0.208904 0.226286 0.600000 0.300000 0.000000
-0.834183 0.193151 -0.117497 0.300000 0.000000 0.600000
-0.808473 -0.368547 -0.242884 0.300000 0.000000 0.600000
-0.402635 0.339461 0.330992 0.000000 0.500000 0.500000
-0.745017 0.053448 0.292428 0.000000 0.500000 0.500000
0.811204 -0.319489 -0.109381 0.600000 0.300000 0.000000
0.811204 0.114106 -0.044275 0.600000 0.300000 0.000000
-0.592097 -0.426903 -0.277994 0.800000 0.200000 0.500000
0.836913 -0.003886 -0.248714 0.600000 0.300000 0.000000
-0.834183 -0.081376 -0.128956 0.300000 0.000000 0.600000
-0.430706 0.421500 -0.056169 0.000000 0.000000 1.000000
-0.364550 0.395791 -0.015213 0.000000 0.000000 1.000000
0.067566 -0.452612 -0.211541 0.800000 0.200000 0.500000
-0.448282 -0.423860 -0.279562 0.600000 0.000000 0.300000
0.362209 -0.337677 0.330992 0.600000 0.000000 0.300000
-0.566376 0.046251 0.298728 0.000000 0.500000 0.500000
0.811204 0.319106 0.032744 0.600000 0.300000 0.000000
0.627958 0.395791 -0.276000 0.000000 0.000000 1.000000
-0.808473 -0.002328 -0.176664 0.300000 0.000000 0.600000
0.126104 0.420082 0.292467 0.000000 0.500000 0.500000
-0.089126 -0.129888 0.330992 0.000000 0.500000 0.500000
0.049663 0.433587 0.292467 0.000000 0.500000 0.500000
-0.414775 -0.360747 -0.279562 0.600000 0.000000 0.300000
-0.135515 0.328642 -0.324553 0.600000 0.000000 0.300000
0.257971 -0.452612 0.145668 0.800000 0.200000 0.500000
-0.576291 -0.324066 -0.323973 0.300000 0.600000 0.000000
-0.176500 0.153164 -0.298844 0.600000 0.000000 0.300000
-0.385921 0.421500 -0.122845 0.000000 0.000000 1.000000
-0.738777 -0.070524 -0.279562 0.600000 0.000000 0.300000
0.558980 0.421500 -0.260345 0.000000 0.000000 1.000000
0.123959 0.345787 0.330992 0.600000 0.000000 0.300000
-0.283169 -0.166743 -0.298844 0.600000 0.000000 0.300000
0.811204 -0.010938 -0.109407 0.600000 0.300000 0.000000
0.811204 0.339247 -0.217843 0.600000 0.300000 0.000000
-0.721868 0.386924 -0.324553 0.600000 0.000000 0.300000
-0.018245 0.390537 -0.324553 0.600000 0.000000 0.300000
-0.656779 0.421500 0.199679 0.000000 0.000000 1.000000
0.017065 -0.079982 0.253903 1.000000 0.000000 0.000000
-0.808473 0.304238 0.099306 0.300000 0.000000 0.600000
0.798265 0.299095 -0.279562 0.600000 0.000000 0.300000
0.811204 -0.307351 -0.210993 0.600000 0.300000 0.000000
0.573903 -0.433820 0.292467 0.500000 0.000000 0.500000
-0.410820 0.395791 0.145608 0.000000 0.000000 1.000000
-0.411471 -0.173731 0.298728 0.000000 0.500000 0.500000
-0.758992 0.330847 -0.324553 0.600000 0.000000 0.300000
0.836913 -0.122846 -0.017054 0.600000 0.300000 0.000000
0.744212 0.421500 0.133024 0.000000 0.000000 1.000000
-0.330092 -0.336373 -0.279562 0.600000 0.000000 0.300000
-0.834183 0.396504 0.240574 0.300000 0.000000 0.600000
-0.484537 0.090255 0.331031 0.000000 0.500000 0.500000
-0.624284 0.136073 0.298728 0.000000 0.500000 0.500000
-0.283535 -0.346330 -0.324553 0.300000 0.600000 0.000000
-0.613117 0.040463 -0.279562 0.600000 0.000000 0.300000
0.631613 0.292954 -0.323262 0.600000 0.000000 0.300000
0.381810 -0.079773 0.298728 0.600000 0.000000 0.300000
-0.341960 0.421500 -0.293709 0.000000 0.000000 1.000000
-0.556021 -0.452612 -0.075297 0.800000 0.200000 0.500000
0.333236 0.219083 -0.298844 0.600000 0.000000 0.300000
0.836913 0.218306 -0.021310 0.600000 0.300000 0.000000
-0.252439 0.346633 -0.279562 0.600000 0.000000 0.300000
0.773013 0.367967 -0.324553 0.600000 0.000000 0.300000
-0.457884 -0.452612 0.191463 0.800000 0.200000 0.500000
-0.672829 -0.303205 0.298728 0.000000 0.500000 0.500000
-0.834183 0.241938 -0.279005 0.300000 0.000000 0.600000
-0.049814 0.048496 -0.279562 0.600000 0.000000 0.300000
0.555341 0.392330 -0.324553 0.600000 0.000000 0.300000
0.126050 -0.478321 0.255868 0.500000 0.000000 0.500000
0.455983 0.432617 0.253903 0.000000 0.500000 0.500000
0.569516 -0.257904 0.319336 0.600000 0.000000 0.300000
-0.830756 -0.051808 0.253903 0.500000 0.500000 0.000000
0.793070 -0.331823 -0.279562 0.600000 0.000000 0.300000
0.755984 -0.044133 0.330992 0.600000 0.000000 0.300000
0.044889 -0.030031 0.292428 0.600000 0.000000 0.300000
0.562190 -0.278872 -0.279562 0.600000 0.000000 0.300000
0.385829 -0.336758 -0.279562 0.600000 0.000000 0.300000
0.468225 0.354648 -0.279562 0.600000 0.000000 0.300000
0.423410 0.421500 0.068408 0.000000 0.000000 1.000000
-0.589234 -0.382799 0.292428 0.000000 0.500000 0.500000
0.337851 -0.377270 -0.324553 0.300000 0.600000 0.000000
0.811204 -0.429988 0.250895 0.600000 0.300000 0.000000
-0.170371 0.400251 -0.324553 0.600000 0.000000 0.300000
0.421171 -0.347858 0.292428 0.600000 0.000000 0.300000
-0.570842 0.341735 -0.279562 0.600000 0.000000 0.300000
0.374902 0.421500 -0.081722 0.000000 0.000000 1.000000
-0.808473 -0.161015 0.110529 0.300000 0.000000 0.600000
-0.461040 0.327162 -0.279562 0.600000 0.000000 0.300000
-0.025277 -0.162047 0.253903 1.000000 0.000000 0.000000
0.136070 0.392607 -0.279562 0.600000 0.000000 0.300000
-0.689081 -0.426903 -0.259588 0.800000 0.200000 0.500000
-0.599356 -0.264514 -0.279562 0.600000 0.000000 0.300000
-0.064708 -0.394031 -0.324553 0.300000 0.600000 0.000000
0.798352 -0.368764 0.308874 0.600000 0.000000 0.300000
0.590159 -0.452612 0.229244 0.800000 0.200000 0.500000
-0.402729 -0.335162 -0.324553 0.300000 0.600000 0.000000
-0.453568 -0.452612 0.127026 0.800000 0.200000 0.500000
0.811204 -0.107255 -0.147286 0.600000 0.300000 0.000000
-0.834183 -0.436400 -0.186445 0.300000 0.000000 0.600000
-0.808473 -0.059768 -0.018483 0.300000 0.000000 0.600000
0.059379 0.395791 -0.038394 0.000000 0.000000 1.000000
0.505682 -0.367710 0.292428 0.600000 0.000000 0.300000
-0.144820 -0.012733 -0.298844 0.600000 0.000000 0.300000
-0.197943 0.058508 0.331031 0.000000 0.500000 0.500000
0.722472 0.369924 0.330992 0.600000 0.000000 0.300000
-0.600542 0.421500 0.241866 0.000000 0.000000 1.000000
0.634092 -0.426889 0.297941 0.600000 0.000000 0.300000
-0.075762 -0.262694 0.273539 1.000000 0.000000 0.000000
-0.834183 -0.043425 0.069070 0.300000 0.000000 0.600000
-0.562608 0.289064 0.292428 0.000000 0.500000 0.500000
0.080405 0.033575 0.330992 0.600000 0.000000 0.300000
0.514165 -0.103330 0.298728 0.600000 0.000000 0.300000
-0.105623 0.421500 -0.235331 0.000000 0.000000 1.000000
0.230281 -0.221776 0.331031 0.600000 0.000000 0.300000
0.781288 0.090966 0.253903 0.000000 1.000000 0.000000
0.811204 0.058461 0.012567 0.600000 0.300000 0.000000
-0.530072 -0.426903 -0.127051 0.800000 0.200000 0.500000
0.445790 -0.426896 0.303973 0.600000 0.000000 0.300000
0.463048 0.184386 0.298728 0.600000 0.000000 0.300000
-0.470357 -0.062337 -0.298844 0.600000 0.000000 0.300000
-0.504478 -0.406007 0.253903 0.500000 0.000000 0.500000
0.696904 0.422043 -0.298844 0.600000 0.000000 0.300000
0.574797 -0.452612 0.150003 0.800000 0.200000 0.500000
-0.808473 -0.113060 -0.014711 0.300000 0.000000 0.600000
0.836913 -0.216794 -0.220049 0.600000 0.300000 0.000000
-0.362483 -0.426903 -0.135105 0.800000 0.200000 0.500000
0.836913 -0.284992 0.038769 0.600000 0.300000 0.000000
0.814427 -0.315377 0.253903 0.000000 1.000000 0.000000
-0.021554 0.013112 0.292467 1.000000 0.000000 0.000000
0.512964 -0.323369 -0.279562 0.600000 0.000000 0.300000
0.696172 0.335813 0.292428 0.600000 0.000000 0.300000
-0.693844 -0.005628 0.292428 0.000000 0.500000 0.500000
0.594940 -0.426903 -0.135657 0.800000 0.200000 0.500000
0.470411 0.395791 0.104848 0.000000 0.000000 1.000000
0.762271 -0.405869 -0.324553 0.300000 0.600000 0.000000
-0.291956 0.068854 0.298728 0.000000 0.500000 0.500000
-0.684336 0.179138 0.322147 0.000000 0.500000 0.500000
0.659840 0.210155 -0.298844 0.600000 0.000000 0.300000
0.298151 0.395791 -0.059284 0.000000 0.000000 1.000000
-0.450842 0.367857 0.292428 0.000000 0.500000 0.500000
-0.043309 0.392274 0.292467 0.000000 0.500000 0.500000
-0.500275 0.421500 0.207594 0.000000 0.000000 1.000000
0.717595 -0.426903 -0.081284 0.800000 0.200000 0.500000
0.687762 0.274707 0.323054 0.600000 0.000000 0.300000
-0.575596 0.375243 0.330992 0.000000 0.500000 0.500000
0.550700 0.437629 0.292467 0.000000 0.500000 0.500000
0.494045 0.066788 0.298728 0.600000 0.000000 0.300000
0.678191 -0.452612 0.008378 0.800000 0.200000 0.500000
-0.425281 0.268331 -0.298844 0.600000 0.000000 0.300000
-0.213614 -0.426903 -0.227931 0.800000 0.200000 0.500000
0.062547 0.334050 0.330992 0.600000 0.000000 0.300000
0.419048 0.421500 -0.007109 0.000000 0.000000 1.000000
-0.808473 -0.296723 0.044124 0.300000 0.000000 0.600000
-0.390093 0.187010 -0.279562 0.600000 0.000000 0.300000
0.811204 0.124867 0.194842 0.600000 0.300000 0.000000
-0.101130 -0.162412 -0.279562 0.600000 0.000000 0.300000
0.233397 -0.314187 0.319791 0.600000 0.000000 0.300000
-0.345589 -0.012199 0.331031 0.000000 0.500000 0.500000
0.797580 0.272373 0.292467 0.000000 1.000000 0.000000
0.066000 -0.426903 -0.158039 0.800000 0.200000 0.500000
-0.275010 -0.140573 0.298728 0.000000 0.500000 0.500000
0.140084 0.069606 -0.298844 0.600000 0.000000 0.300000
0.014622 -0.452612 0.013148 0.800000 0.200000 0.500000
-0.494736 -0.426903 0.100695 0.800000 0.200000 0.500000
-0.801152 0.442698 0.292467 0.500000 0.500000 0.000000
0.636239 0.240624 0.298727 0.600000 0.000000 0.300000
-0.600475 0.421500 -0.132070 0.000000 0.000000 1.000000
0.427939 0.322257 -0.279562 0.600000 0.000000 0.300000
-0.186893 -0.205309 -0.279562 0.600000 0.000000 0.300000
-0.808473 -0.327015 -0.001333 0.300000 0.000000 0.600000
-0.569914 -0.452612 0.132047 0.800000 0.200000 0.500000
-0.710258 -0.268840 -0.279562 0.600000 0.000000 0.300000
-0.784808 -0.452612 -0.112383 0.800000 0.200000 0.500000
-0.808473 -0.424026 -0.309392 0.300000 0.000000 0.600000
0.493060 0.218847 -0.298844 0.600000 0.000000 0.300000
0.421791 0.395791 -0.092688 0.000000 0.000000 1.000000
0.617729 -0.437721 -0.324553 0.300000 0.600000 0.000000
-0.808533 -0.478321 -0.162210 0.300000 0.000000 0.600000
-0.441823 -0.012517 -0.298844 0.600000 0.300000 0.000000
-0.789802 -0.311155 0.323403 0.000000 0.500000 0.500000
0.457852 -0.256044 -0.279562 0.600000 0.000000 0.300000
0.035747 -0.147226 0.330992 0.600000 0.000000 0.300000
0.811204 -0.023592 0.127048 0.600000 0.300000 0.000000
-0.834183 0.051945 0.213167 0.300000 0.000000 0.600000
-0.500540 0.344434 0.292428 0.000000 0.500000 0.500000
-0.721268 0.267024 0.292428 0.000000 0.500000 0.500000
0.756093 0.062855 -0.298844 0.600000 0.000000 0.300000
-0.409101 -0.011512 0.331031 0.000000 0.500000 0.500000
-0.042377 -0.043950 0.292428 0.000000 0.500000 0.500000
-0.808473 0.126796 -0.091076 0.300000 0.000000 0.600000
0.325256 -0.077402 0.298728 0.600000 0.000000 0.300000
-0.790836 0.010299 0.292467 0.500000 0.500000 0.000000
-0.164816 -0.137703 -0.279562 0.600000 0.000000 0.300000
-0.834183 -0.030273 -0.274043 0.300000 0.000000 0.600000
-0.109593 -0.430978 0.292467 0.500000 0.000000 0.500000
0.603166 -0.133436 0.331031 0.600000 0.000000 0.300000
0.849224 0.000134 0.292467 0.000000 1.000000 0.000000
-0.051548 -0.056287 -0.298844 0.600000 0.000000 0.300000
-0.774933 0.421500 -0.131797 0.000000 0.000000 1.000000
0.785614 0.379764 0.327743 0.600000 0.000000 0.300000
-0.725371 -0.377029 0.292428 0.000000 0.500000 0.500000
0.607430 0.415049 0.292467 0.000000 0.500000 0.500000
-0.260703 -0.444242 -0.324553 0.300000 0.600000 0.000000
0.651712 0.395791 -0.097541 0.000000 0.000000 1.000000
0.378517 0.061125 0.298728 0.600000 0.000000 0.300000
-0.572273 0.158843 -0.279562 0.600000 0.000000 0.300000
-0.808473 -0.239839 -0.201627 0.300000 0.000000 0.600000
-0.808473 0.089526 0.134458 0.300000 0.000000 0.600000
0.836913 -0.006713 -0.159457 0.600000 0.300000 0.000000
-0.662217 0.126962 -0.298844 0.600000 0.000000 0.300000
0.351062 -0.002499 0.298728 0.600000 0.000000 0.300000
0.453335 0.360683 0.330992 0.600000 0.000000 0.300000
-0.345968 0.331203 -0.324553 0.600000 0.000000 0.300000
-0.203896 0.395791 -0.106288 0.000000 0.000000 1.000000
-0.808473 0.206520 -0.024657 0.300000 0.000000 0.600000
0.131676 -0.096978 -0.298844 0.600000 0.000000 0.300000
0.781787 0.155751 0.330992 0.600000 0.000000 0.300000
0.264069 0.391071 -0.279562 0.600000 0.000000 0.300000
0.643595 0.342844 -0.279562 0.600000 0.000000 0.300000
0.836913 -0.183509 0.217155 0.600000 0.300000 0.000000
-0.515322 0.421500 -0.265189 0.000000 0.000000 1.000000
0.008933 0.176118 0.292428 0.600000 0.000000 0.300000
0.084815 0.395791 -0.213784 0.000000 0.000000 1.000000
0.308603 -0.135563 -0.279562 0.600000 0.000000 0.300000
-0.660253 -0.452612 0.181858 0.800000 0.200000 0.500000
-0.219768 -0.343446 0.292428 0.000000 0.500000 0.500000
-0.291968 0.262255 -0.298844 0.600000 0.000000 0.300000
0.648041 -0.202660 0.315375 0.600000 0.000000 0.300000
0.836913 0.332098 -0.062418 0.600000 0.300000 0.000000
-0.132355 0.040191 -0.298844 0.600000 0.000000 0.300000
0.770469 -0.151352 0.330992 0.600000 0.000000 0.300000
0.274458 0.142647 0.298728 0.600000 0.000000 0.300000
-0.079770 0.138990 0.330992 0.000000 0.500000 0.500000
-0.693667 -0.384090 0.330992 0.000000 0.500000 0.500000
-0.029794 0.182536 0.330992 0.000000 0.500000 0.500000
-0.155701 -0.307074 -0.279562 0.600000 0.000000 0.300000
-0.497569 0.294120 -0.324553 0.600000 0.000000 0.300000
-0.808473 -0.221643 -0.012757 0.300000 0.000000 0.600000
0.210501 0.304513 0.330992 0.600000 0.000000 0.300000
0.162802 -0.300760 0.298728 0.600000 0.000000 0.300000
-0.321677 0.282569 0.293111 0.000000 0.500000 0.500000
0.078493 -0.168999 0.269030 1.000000 0.000000 0.000000
-0.507386 -0.132321 -0.279562 0.600000 0.000000 0.300000
-0.504411 -0.015547 0.298728 0.000000 0.500000 0.500000
0.772641 -0.333400 0.273158 0.000000 1.000000 0.000000
-0.559507 -0.313695 0.312307 0.000000 0.500000 0.500000
-0.795944 0.187889 -0.298844 0.600000 0.000000 0.300000
0.803501 0.444363 -0.324553 0.600000 0.000000 0.300000
0.422571 0.421500 0.168314 0.000000 0.000000 1.000000
0.811204 0.248699 0.151790 0.600000 0.300000 0.000000
0.642464 -0.126722 -0.298844 0.600000 0.000000 0.300000
0.271216 -0.374055 -0.324553 0.300000 0.600000 0.000000
0.645954 0.395791 0.059142 0.000000 0.000000 1.000000
-0.355197 0.395791 0.232743 0.000000 0.000000 1.000000
-0.697638 -0.010361 -0.298844 0.600000 0.300000 0.000000
-0.808473 -0.251439 0.212874 0.300000 0.000000 0.600000
0.341781 -0.426903 0.118238 0.800000 0.200000 0.500000
0.156387 0.395791 0.154497 0.000000 0.000000 1.000000
0.811576 -0.165306 0.292467 0.000000 1.000000 0.000000
-0.528765 0.421500 -0.068524 0.000000 0.000000 1.000000
0.836913 0.423913 -0.088937 0.600000 0.300000 0.000000
-0.043138 0.216573 0.292428 0.000000 0.500000 0.500000
-0.313736 0.421500 0.077332 0.000000 0.000000 1.000000
0.811204 0.358706 -0.157594 0.600000 0.300000 0.000000
0.439778 -0.452612 -0.050047 0.800000 0.200000 0.500000
-0.067018 0.187443 -0.279562 0.600000 0.000000 0.300000
0.190660 -0.248322 -0.298844 0.600000 0.000000 0.300000
-0.035077 -0.198416 0.330992 0.000000 0.500000 0.500000
-0.049165 -0.157152 -0.298844 0.600000 0.000000 0.300000
0.836913 0.315490 0.077221 0.600000 0.300000 0.000000
0.490698 -0.426903 0.116354 0.800000 0.200000 0.500000
-0.834183 -0.186595 -0.096255 0.300000 0.000000 0.600000
-0.834183 -0.315810 -0.216726 0.300000 0.000000 0.600000
-0.533621 -0.426903 0.205849 0.800000 0.200000 0.500000
-0.061098 -0.314598 0.292428 0.000000 0.500000 0.500000
-0.740135 -0.021652 0.292428 0.000000 0.500000 0.500000
-0.181144 0.395791 0.094389 0.000000 0.000000 1.000000
-0.834183 -0.013391 0.159331 0.300000 0.000000 0.600000
-0.834183 -0.058177 -0.084763 0.300000 0.000000 0.600000
-0.219630 -0.379326 -0.298844 0.600000 0.000000 0.300000
0.392566 -0.435126 -0.324553 0.300000 0.600000 0.000000
-0.834183 0.380213 0.089888 0.300000 0.000000 0.600000
0.758018 0.421500 -0.011297 0.000000 0.000000 1.000000
-0.215636 0.296649 -0.324553 0.600000 0.000000 0.300000
0.120809 0.395791 -0.062574 0.000000 0.000000 1.000000
-0.611575 -0.250244 0.322711 0.000000 0.500000 0.500000
0.703634 0.421500 -0.175408 0.000000 0.000000 1.000000
0.403148 -0.452612 -0.147279 0.800000 0.200000 0.500000
0.074420 0.395791 0.210560 0.000000 0.000000 1.000000
-0.296692 0.421500 -0.158163 0.000000 0.000000 1.000000
0.432178 -0.169460 0.331031 0.600000 0.000000 0.300000
0.836913 0.025595 0.251620 0.600000 0.300000 0.000000
-0.808473 0.262071 -0.180405 0.300000 0.000000 0.600000
-0.766112 0.395791 0.033003 0.000000 0.000000 1.000000
0.836913 -0.269970 0.225698 0.600000 0.300000 0.000000
0.178900 -0.364753 0.340387 0.300000 0.000000 0.600000
0.562500 0.421500 0.103618 0.000000 0.000000 1.000000
0.697145 -0.099203 0.292428 0.600000 0.000000 0.300000
0.705952 -0.379264 -0.279562 0.600000 0.000000 0.300000
-0.834183 -0.116019 -0.242690 0.300000 0.000000 0.600000
0.100354 0.395791 0.026767 0.000000 0.000000 1.000000
0.040318 0.105181 0.292428 0.600000 0.000000 0.300000
-0.473743 -0.322637 0.292428 0.000000 0.500000 0.500000
-0.834183 0.182843 0.056774 0.300000 0.000000 0.600000
-0.730369 0.395791 0.135201 0.000000 0.000000 1.000000
-0.641203 -0.452612 -0.222308 0.800000 0.200000 0.500000
-0.065748 -0.345594 0.253903 1.000000 0.000000 0.000000
-0.563816 0.425819 -0.324553 0.600000 0.000000 0.300000
-0.497831 -0.426903 -0.021356 0.800000 0.200000 0.500000
0.488285 0.421500 0.040810 0.000000 0.000000 1.000000
0.477315 0.278555 0.310692 0.600000 0.000000 0.300000
0.046581 -0.143477 -0.279562 0.600000 0.000000 0.300000
-0.811792 -0.362357 0.292467 0.500000 0.500000 0.000000
0.749554 0.229068 0.292428 0.600000 0.000000 0.300000
-0.062667 0.421500 -0.119590 0.000000 0.000000 1.000000
0.074495 -0.367610 0.292428 0.600000 0.000000 0.300000
-0.511149 -0.276835 0.298728 0.000000 0.500000 0.500000
-0.524237 0.210668 -0.298844 0.600000 0.000000 0.300000
-0.434948 -0.289893 -0.298844 0.600000 0.000000 0.300000
0.606526 0.443325 -0.324553 0.600000 0.000000 0.300000
-0.572784 -0.022023 0.298728 0.000000 0.500000 0.500000
-0.808473 -0.193256 0.186040 0.300000 0.000000 0.600000
0.026047 0.224921 0.253903 1.000000 0.000000 0.000000
-0.026252 0.095277 -0.298844 0.600000 0.000000 0.300000
0.836913 -0.311279 -0.280532 0.600000 0.300000 0.000000
-0.808473 -0.046752 0.117471 0.300000 0.000000 0.600000
0.540611 -0.426903 0.021353 0.800000 0.200000 0.500000
0.118651 -0.407996 0.330992 0.600000 0.000000 0.300000
0.487734 0.395791 -0.111492 0.000000 0.000000 1.000000
-0.808473 0.060371 0.047916 0.300000 0.000000 0.600000
-0.808473 0.355512 -0.277799 0.300000 0.000000 0.600000
0.836913 0.304569 0.173032 0.600000 0.300000 0.000000
0.612396 -0.426903 -0.243585 0.800000 0.200000 0.500000
0.836913 0.022962 0.108013 0.600000 0.300000 0.000000
0.314347 0.297675 0.330992 0.600000 0.000000 0.300000
0.836913 0.181734 0.163875 0.600000 0.300000 0.000000
0.576082 0.421500 0.196902 0.000000 0.000000 1.000000
0.561173 0.245039 -0.279562 0.600000 0.000000 0.300000
0.798253 0.351603 -0.279562 0.600000 0.000000 0.300000
-0.225455 -0.051525 0.331031 0.000000 0.500000 0.500000
0.226907 -0.373794 0.292428 0.600000 0.000000 0.300000
0.412609 -0.240095 -0.298844 0.600000 0.000000 0.300000
0.224478 -0.149333 0.331031 0.600000 0.000000 0.300000
-0.352698 -0.291143 -0.279562 0.600000 0.000000 0.300000
-0.720130 -0.426903 -0.066245 0.800000 0.200000 0.500000
-0.724424 -0.478321 0.255527 0.500000 0.000000 0.500000
-0.204428 -0.118149 -0.298844 0.600000 0.000000 0.300000
0.145580 -0.346368 -0.279562 0.600000 0.000000 0.300000
0.811204 0.433612 -0.224944 0.600000 0.300000 0.000000
0.192411 -0.002129 0.331031 0.600000 0.000000 0.300000
-0.631190 0.268099 -0.279562 0.600000 0.000000 0.300000
-0.805803 -0.203261 0.292467 0.500000 0.500000 0.000000
0.405196 0.318531 0.292428 0.600000 0.000000 0.300000
-0.781760 0.193917 0.330923 0.000000 0.500000 0.500000
-0.816959 0.131555 0.292467 0.500000 0.500000 0.000000
0.614546 0.077554 -0.298844 0.600000 0.000000 0.300000
0.734298 -0.154674 0.292428 0.600000 0.000000 0.300000
-0.834183 -0.332440 -0.157572 0.300000 0.000000 0.600000
-0.038109 -0.426903 0.081119 0.800000 0.200000 0.500000
0.836913 -0.063720 -0.038192 0.600000 0.300000 0.000000
0.811204 -0.297823 -0.044087 0.600000 0.300000 0.000000
0.544796 0.395791 0.028676 0.000000 0.000000 1.000000
0.592000 -0.065196 -0.279562 0.600000 0.000000 0.300000
0.826340 0.074097 0.253903 0.000000 1.000000 0.000000
0.843697 0.101069 0.292467 0.000000 1.000000 0.000000
0.097814 0.196948 0.292428 0.600000 0.000000 0.300000
-0.549132 0.217232 0.330074 0.000000 0.500000 0.500000
-0.808473 0.205218 0.141134 0.300000 0.000000 0.600000
-0.481335 -0.402314 0.330992 0.000000 0.500000 0.500000
-0.336993 -0.426899 0.308723 0.000000 0.500000 0.500000
0.597147 0.421500 -0.021822 0.000000 0.000000 1.000000
0.054247 -0.280415 0.330992 0.600000 0.000000 0.300000
0.135162 0.371993 0.292428 0.600000 0.000000 0.300000
0.247856 -0.452612 -0.221072 0.800000 0.200000 0.500000
-0.241846 -0.452709 0.292467 0.500000 0.000000 0.500000
-0.823416 0.083731 0.292467 0.500000 0.500000 0.000000
-0.808473 0.125015 -0.008779 0.300000 0.000000 0.600000
0.811204 -0.427084 0.074400 0.600000 0.300000 0.000000
0.493792 -0.203687 -0.279562 0.600000 0.000000 0.300000
-0.380368 -0.290410 0.298728 0.000000 0.500000 0.500000
-0.506709 -0.103858 0.298728 0.000000 0.500000 0.500000
0.811204 -0.055234 0.089113 0.600000 0.300000 0.000000
-0.149462 -0.452612 -0.173875 0.800000 0.200000 0.500000
0.029569 -0.331039 0.330992 0.600000 0.000000 0.300000
0.206433 -0.426903 0.058407 0.800000 0.200000 0.500000
0.117157 0.140239 0.294349 0.600000 0.000000 0.300000
0.446001 -0.331469 -0.324553 0.300000 0.600000 0.000000
-0.417430 -0.426903 0.086813 0.800000 0.200000 0.500000
0.420969 0.445604 0.292467 0.000000 0.500000 0.500000
-0.808473 -0.370375 0.128644 0.300000 0.000000 0.600000
-0.559933 -0.426903 0.043229 0.800000 0.200000 0.500000
0.436642 0.395791 -0.244800 0.000000 0.000000 1.000000
-0.640314 0.421500 -0.174821 0.000000 0.000000 1.000000
0.836913 -0.096840 0.202659 0.600000 0.300000 0.000000
0.310745 -0.426903 -0.189498 0.800000 0.200000 0.500000
0.423954 -0.107706 0.298728 0.600000 0.000000 0.300000
0.817968 -0.111445 0.292467 0.000000 1.000000 0.000000
-0.240945 0.395787 0.309241 0.000000 0.500000 0.500000
-0.811202 0.447209 0.127215 0.300000 0.000000 0.600000
-0.037082 -0.011625 0.330992 0.000000 0.500000 0.500000
0.811204 -0.221811 0.079299 0.600000 0.300000 0.000000
-0.458220 -0.426903 -0.202848 0.800000 0.200000 0.500000
-0.033970 -0.426903 0.206005 0.800000 0.200000 0.500000
0.462695 0.088087 0.331031 0.600000 0.000000 0.300000
-0.808473 0.350025 -0.157964 0.300000 0.000000 0.600000
0.164823 0.256888 -0.279562 0.600000 0.000000 0.300000
-0.609845 0.421500 0.048353 0.000000 0.000000 1.000000
-0.246662 0.421500 -0.235181 0.000000 0.000000 1.000000
0.389660 -0.174311 -0.298844 0.600000 0.000000 0.300000
-0.441864 -0.452612 0.243421 0.800000 0.200000 0.500000
-0.754330 0.041001 -0.298844 0.600000 0.300000 0.000000
0.274958 -0.029109 0.298728 0.600000 0.000000 0.300000
0.636047 0.189432 0.298728 0.600000 0.000000 0.300000
0.671206 0.015661 -0.279562 0.600000 0.000000 0.300000
-0.308151 -0.080671 0.331031 0.000000 0.500000 0.500000
0.606308 0.333131 -0.324553 0.600000 0.000000 0.300000
-0.778837 0.421500 -0.004849 0.000000 0.000000 1.000000
-0.676266 0.421500 -0.007794 0.000000 0.000000 1.000000
-0.625188 -0.469210 0.292467 0.500000 0.000000 0.500000
-0.267980 -0.426903 -0.119774 0.800000 0.200000 0.500000
0.811204 -0.189209 0.004275 0.600000 0.300000 0.000000
-0.111679 -0.426903 0.096376 0.800000 0.200000 0.500000
0.633280 -0.452612 -0.163097 0.800000 0.200000 0.500000
-0.077139 0.395791 -0.039376 0.000000 0.000000 1.000000
-0.184365 -0.426903 0.225389 0.800000 0.200000 0.500000
0.547733 0.361598 0.330992 0.600000 0.000000 0.300000
0.644284 0.275980 -0.279562 0.600000 0.000000 0.300000
0.695929 0.187514 0.330992 0.600000 0.000000 0.300000
-0.684276 0.421500 -0.090163 0.000000 0.000000 1.000000
-0.711636 -0.433009 -0.324553 0.300000 0.600000 0.000000
-0.052165 -0.311647 -0.279562 0.600000 0.000000 0.300000
0.398154 0.073537 -0.298844 0.600000 0.000000 0.300000
0.811204 -0.179063 -0.091472 0.600000 0.300000 0.000000
-0.834183 -0.430097 -0.131133 0.300000 0.000000 0.600000
0.123921 -0.452612 0.052465 0.800000 0.200000 0.500000
-0.562683 0.009806 -0.298844 0.600000 0.300000 0.000000
-0.246614 -0.399332 0.330992 0.000000 0.500000 0.500000
-0.639603 0.306082 0.292428 0.000000 0.500000 0.500000
-0.559873 -0.084807 0.331031 0.000000 0.500000 0.500000
-0.257482 -0.256785 0.319511 0.000000 0.500000 0.500000
-0.711698 -0.219962 0.292428 0.000000 0.500000 0.500000
0.623183 -0.026573 -0.298844 0.600000 0.000000 0.300000
-0.781566 -0.426903 0.100358 0.800000 0.200000 0.500000
-0.296429 -0.224099 -0.279562 0.600000 0.000000 0.300000
-0.029894 0.276567 0.292428 0.000000 0.500000 0.500000
-0.055837 -0.392996 0.292428 0.000000 0.500000 0.500000
-0.394639 -0.443027 0.292467 0.500000 0.000000 0.500000
0.023836 0.421500 0.124150 0.000000 0.000000 1.000000
-0.247808 -0.133185 -0.279562 0.600000 0.000000 0.300000
0.825049 0.283472 -0.324553 0.600000 0.300000 0.000000
-0.834183 -0.316148 -0.045749 0.300000 0.000000 0.600000
-0.009568 0.395791 -0.078385 0.000000 0.000000 1.000000
0.779435 0.084689 0.330992 0.600000 0.000000 0.300000
0.258667 -0.404031 0.253903 0.500000 0.000000 0.500000
0.346898 -0.150817 0.331031 0.600000 0.000000 0.300000
0.384132 -0.452612 -0.247200 0.800000 0.200000 0.500000
0.079845 0.359187 -0.298844 0.600000 0.000000 0.300000
-0.131278 -0.452612 0.059803 0.800000 0.200000 0.500000
0.078493 -0.264899 0.279177 1.000000 0.000000 0.000000
0.357727 -0.452612 0.052772 0.800000 0.200000 0.500000
0.132684 -0.452612 -0.241714 0.800000 0.200000 0.500000
-0.069084 0.180245 0.253903 1.000000 0.000000 0.000000
0.618970 -0.245299 0.330624 0.600000 0.000000 0.300000
0.520739 -0.257930 0.298728 0.600000 0.000000 0.300000
-0.205945 0.145939 0.298728 0.000000 0.500000 0.500000
0.424235 -0.373901 -0.279562 0.600000 0.000000 0.300000
-0.517342 0.264936 -0.279562 0.600000 0.000000 0.300000
0.807603 0.201503 0.292467 0.000000 1.000000 0.000000
-0.524862 -0.041922 -0.298844 0.600000 0.000000 0.300000
0.241182 0.395791 -0.200092 0.000000 0.000000 1.000000
-0.781257 -0.041523 -0.279562 0.600000 0.000000 0.300000
-0.115581 -0.452612 -0.141351 0.800000 0.200000 0.500000
0.745438 -0.401194 0.254345 0.500000 0.000000 0.500000
0.811204 -0.367753 -0.311866 0.600000 0.300000 0.000000
-0.492737 -0.261844 -0.298844 0.600000 0.000000 0.300000
0.067200 -0.006491 0.253903 1.000000 0.000000 0.000000
0.727337 0.232213 -0.279562 0.600000 0.000000 0.300000
0.836913 0.176583 -0.216581 0.600000 0.300000 0.000000
-0.287238 -0.071516 -0.279562 0.600000 0.000000 0.300000
-0.037373 0.093691 0.330992 0.000000 0.500000 0.500000
-0.689817 0.061471 0.326972 0.000000 0.500000 0.500000
-0.834183 -0.324796 0.078183 0.300000 0.000000 0.600000
-0.715941 0.292954 -0.302060 0.600000 0.000000 0.300000
0.031421 0.049140 0.292428 0.600000 0.000000 0.300000
0.320578 0.208423 0.298728 0.600000 0.000000 0.300000
0.825858 0.259230 0.253903 0.000000 1.000000 0.000000
-0.054153 0.306628 -0.279562 0.600000 0.000000 0.300000
0.811204 0.400908 -0.278320 0.600000 0.300000 0.000000
-0.185124 -0.452612 -0.101875 0.800000 0.200000 0.500000
0.488958 -0.478321 0.277059 0.500000 0.000000 0.500000
0.662638 0.328719 0.330992 0.600000 0.000000 0.300000
0.560722 -0.478321 0.287894 0.500000 0.000000 0.500000
0.849768 0.176873 0.273049 0.000000 1.000000 0.000000
0.034130 0.251850 0.292467 1.000000 0.000000 0.000000
-0.302276 0.003430 -0.298844 0.600000 0.000000 0.300000
0.550041 -0.416842 -0.279562 0.600000 0.000000 0.300000
-0.697215 -0.174978 -0.279562 0.600000 0.000000 0.300000
-0.539289 -0.426903 0.156670 0.800000 0.200000 0.500000
-0.068488 -0.362909 0.330992 0.000000 0.500000 0.500000
0.338131 -0.452612 -0.254528 0.800000 0.200000 0.500000
-0.664949 -0.452612 0.030140 0.800000 0.200000 0.500000
-0.282272 -0.426903 0.124330 0.800000 0.200000 0.500000
0.353933 -0.426903 -0.041881 0.800000 0.200000 0.500000
-0.643358 -0.279689 -0.279562 0.600000 0.000000 0.300000
-0.509203 0.145502 0.298728 0.000000 0.500000 0.500000
-0.438575 -0.180662 -0.298844 0.600000 0.000000 0.300000
0.811204 -0.464838 -0.139178 0.600000 0.300000 0.000000
0.561893 0.330467 -0.279562 0.600000 0.000000 0.300000
-0.834183 -0.422617 0.035242 0.300000 0.000000 0.600000
0.681397 -0.187124 -0.298844 0.600000 0.000000 0.300000
-0.154633 0.400844 0.292467 0.000000 0.500000 0.500000
-0.834183 -0.243035 -0.297988 0.300000 0.000000 0.600000
-0.196991 -0.327038 0.330992 0.000000 0.500000 0.500000
0.630120 0.016701 0.298728 0.600000 0.000000 0.300000
-0.263572 0.028283 0.331031 0.000000 0.500000 0.500000
0.836913 0.287221 -0.124744 0.600000 0.300000 0.000000
-0.774731 -0.452612 -0.231666 0.800000 0.200000 0.500000
0.802082 -0.448073 -0.298844 0.300000 0.600000 0.000000
-0.472737 0.408317 -0.298844 0.600000 0.000000 0.300000
0.698221 -0.426903 0.222518 0.800000 0.200000 0.500000
-0.089610 0.252362 0.292428 0.000000 0.500000 0.500000
-0.524156 0.374570 -0.279562 0.600000 0.000000 0.300000
-0.808473 0.025581 0.181528 0.300000 0.000000 0.600000
0.701823 -0.478321 -0.305820 0.300000 0.600000 0.000000
0.185484 0.447209 -0.302562 0.600000 0.000000 0.300000
-0.008602 -0.341085 0.253903 1.000000 0.000000 0.000000
-0.073288 -0.108262 0.292428 0.000000 0.500000 0.500000
0.532057 0.212958 0.331031 0.600000 0.000000 0.300000
0.387741 0.421500 -0.174910 0.000000 0.000000 1.000000
0.156525 -0.426888 0.297633 0.600000 0.000000 0.300000
-0.834183 0.419837 -0.186379 0.300000 0.000000 0.600000
-0.571148 -0.436065 0.292467 0.500000 0.000000 0.500000
-0.257415 -0.452612 0.232583 0.800000 0.200000 0.500000
0.707543 0.395791 0.144328 0.000000 0.000000 1.000000
0.759545 0.421500 0.230239 0.000000 0.000000 1.000000
0.804861 -0.477887 0.292467 0.000000 1.000000 0.000000
0.521109 0.395791 -0.254251 0.000000 0.000000 1.000000
-0.580998 0.183845 0.331031 0.000000 0.500000 0.500000
0.836913 0.377309 -0.207515 0.600000 0.300000 0.000000
0.836913 0.236850 0.020941 0.600000 0.300000 0.000000
0.107743 0.271347 0.327622 0.600000 0.000000 0.300000
0.732736 -0.475316 0.292467 0.500000 0.000000 0.500000
-0.606152 0.401746 0.292467 0.000000 0.500000 0.500000
-0.409803 0.164798 0.298728 0.000000 0.500000 0.500000
-0.673157 -0.327697 -0.324553 0.300000 0.600000 0.000000
0.811204 0.055616 -0.085400 0.600000 0.300000 0.000000
0.661953 -0.305624 0.298728 0.600000 0.000000 0.300000
-0.370682 -0.452612 -0.045566 0.800000 0.200000 0.500000
0.805434 -0.019872 0.292467 0.000000 1.000000 0.000000
-0.465843 0.237022 0.317707 0.000000 0.500000 0.500000
-0.815931 0.378254 0.292467 0.500000 0.500000 0.000000
0.323640 -0.226132 -0.298844 0.600000 0.000000 0.300000
0.323930 0.082160 0.298728 0.600000 0.000000 0.300000
0.100940 -0.323929 0.292428 0.600000 0.000000 0.300000
0.228379 -0.091202 -0.279562 0.600000 0.000000 0.300000
-0.195842 -0.169400 0.331031 0.000000 0.500000 0.500000
0.833311 -0.280067 -0.324553 0.600000 0.300000 0.000000
0.043252 -0.214266 0.292467 1.000000 0.000000 0.000000
0.811204 -0.377037 0.113187 0.600000 0.300000 0.000000
0.426506 0.395791 0.220900 0.000000 0.000000 1.000000
0.811204 -0.026824 -0.002004 0.600000 0.300000 0.000000
-0.808473 -0.398594 0.194767 0.300000 0.000000 0.600000
-0.802574 -0.176895 0.253903 0.500000 0.500000 0.000000
0.836913 0.217683 -0.162066 0.600000 0.300000 0.000000
0.270665 -0.478321 0.273155 0.500000 0.000000 0.500000
0.345780 0.143904 0.331031 0.600000 0.000000 0.300000
0.467207 -0.452612 -0.133237 0.800000 0.200000 0.500000
0.146317 -0.169972 0.312072 0.600000 0.000000 0.300000
-0.808473 -0.264900 0.158212 0.300000 0.000000 0.600000
-0.042846 0.302640 0.330992 0.000000 0.500000 0.500000
-0.834183 0.339978 -0.056492 0.300000 0.000000 0.600000
-0.673435 0.421436 -0.324553 0.600000 0.000000 0.300000
0.043838 0.189193 0.330992 0.600000 0.000000 0.300000
-0.100989 0.274810 -0.279562 0.600000 0.000000 0.300000
-0.784951 -0.063535 0.292428 0.000000 0.500000 0.500000
0.595541 -0.047354 0.331031 0.600000 0.000000 0.300000
0.402169 -0.035314 -0.279562 0.600000 0.000000 0.300000
0.151047 -0.406059 0.253903 0.500000 0.000000 0.500000
-0.465387 0.299982 0.292428 0.000000 0.500000 0.500000
-0.323602 0.192346 -0.279562 0.600000 0.000000 0.300000
0.053522 -0.436587 -0.324553 0.300000 0.600000 0.000000
0.736459 -0.028641 -0.298844 0.600000 0.000000 0.300000
-0.808473 0.073811 -0.197620 0.300000 0.000000 0.600000
0.689768 0.084409 0.325012 0.600000 0.000000 0.300000
-0.436609 0.421500 -0.259984 0.000000 0.000000 1.000000
0.463655 -0.385918 0.292428 0.600000 0.000000 0.300000
0.046264 0.068888 0.330992 0.600000 0.000000 0.300000
0.728086 -0.171945 -0.298844 0.600000 0.000000 0.300000
0.836913 0.323474 -0.276792 0.600000 0.300000 0.000000
-0.327663 0.172522 0.331031 0.000000 0.500000 0.500000
0.509010 0.296127 -0.324553 0.600000 0.000000 0.300000
0.811204 -0.099811 0.128311 0.600000 0.300000 0.000000
-0.517383 0.395791 -0.157321 0.000000 0.000000 1.000000
-0.038256 0.055683 0.292428 0.000000 0.500000 0.500000
0.731776 -0.452612 0.093235 0.800000 0.200000 0.500000
0.205003 -0.426903 0.139720 0.800000 0.200000 0.500000
-0.495232 0.421500 -0.215509 0.000000 0.000000 1.000000
0.569443 -0.337539 -0.324553 0.300000 0.600000 0.000000
0.456687 -0.190536 0.298728 0.600000 0.000000 0.300000
0.162792 -0.288886 -0.279562 0.600000 0.000000 0.300000
0.836913 -0.143692 0.068733 0.600000 0.300000 0.000000
-0.808473 0.431587 -0.272500 0.300000 0.000000 0.600000
0.710895 -0.223696 0.330992 0.600000 0.000000 0.300000
-0.390785 0.043452 0.331031 0.000000 0.500000 0.500000
-0.808473 -0.298783 -0.079641 0.300000 0.000000 0.600000
-0.714620 -0.286495 0.330992 0.000000 0.500000 0.500000
0.257237 0.445801 0.292467 0.000000 0.500000 0.500000
0.811204 0.406103 0.077265 0.600000 0.300000 0.000000
0.416088 0.066651 0.331031 0.600000 0.000000 0.300000
0.428395 -0.426903 0.177676 0.800000 0.200000 0.500000
0.675384 -0.076219 -0.279562 0.600000 0.000000 0.300000
-0.847037 0.197414 0.255415 0.500000 0.500000 0.000000
-0.052991 0.025344 0.253903 1.000000 0.000000 0.000000
0.759124 0.109186 0.292428 0.600000 0.000000 0.300000
-0.562748 -0.452612 0.237108 0.800000 0.200000 0.500000
-0.000772 -0.303564 -0.298844 0.600000 0.000000 0.300000
-0.611498 0.395791 -0.292339 0.000000 0.000000 1.000000
-0.808473 -0.251237 -0.053550 0.300000 0.000000 0.600000
0.802641 0.428329 0.292467 0.000000 1.000000 0.000000
-0.451207 -0.051517 0.298728 0.000000 0.500000 0.500000
-0.690570 -0.114856 -0.298844 0.600000 0.000000 0.300000
0.223247 0.370081 0.267825 0.000000 0.500000 0.500000
0.749047 -0.295853 0.292428 0.600000 0.000000 0.300000
0.087929 -0.251030 -0.298844 0.600000 0.000000 0.300000
0.761301 -0.452612 -0.277366 0.800000 0.200000 0.500000
-0.029871 0.395791 -0.037763 0.000000 0.000000 1.000000
-0.669689 0.136847 0.298728 0.000000 0.500000 0.500000
-0.107309 -0.452612 -0.092750 0.800000 0.200000 0.500000
0.495974 -0.426903 0.182553 0.800000 0.200000 0.500000
0.103932 -0.461757 0.292467 0.500000 0.000000 0.500000
-0.020211 -0.452612 -0.144578 0.800000 0.200000 0.500000
0.795232 0.395791 0.172863 0.000000 0.000000 1.000000
-0.518805 0.359793 0.330992 0.000000 0.500000 0.500000
0.332055 -0.452612 0.214464 0.800000 0.200000 0.500000
0.091029 -0.399260 -0.279562 0.600000 0.000000 0.300000
-0.069796 0.097079 0.292467 1.000000 0.000000 0.000000
-0.336450 -0.452612 0.060641 0.800000 0.200000 0.500000
0.836913 0.359780 0.023730 0.600000 0.300000 0.000000
0.020041 -0.107241 -0.298844 0.600000 0.000000 0.300000
-0.321476 -0.224952 0.331031 0.000000 0.500000 0.500000
0.836913 -0.128332 -0.258366 0.600000 0.300000 0.000000
-0.310760 -0.363266 0.330992 0.000000 0.500000 0.500000
-0.420251 -0.392042 0.330992 0.000000 0.500000 0.500000
0.355125 0.305803 0.292428 0.600000 0.000000 0.300000
-0.619840 -0.019566 0.321616 0.000000 0.500000 0.500000
0.536872 -0.186004 0.331031 0.600000 0.000000 0.300000
0.811204 -0.089641 0.045364 0.600000 0.300000 0.000000
0.357713 0.431605 0.292467 0.000000 0.500000 0.500000
0.510458 0.421500 -0.040737 0.000000 0.000000 1.000000
0.185466 -0.452612 0.189814 0.800000 0.200000 0.500000
0.795790 0.254550 -0.298844 0.600000 0.000000 0.300000
-0.808473 0.087686 -0.315613 0.300000 0.000000 0.600000
0.581268 -0.180133 -0.279562 0.600000 0.000000 0.300000
0.330556 -0.370814 0.379309 0.300000 0.000000 0.600000
0.659500 -0.363069 -0.279562 0.600000 0.000000 0.300000
-0.017094 -0.287565 0.292467 1.000000 0.000000 0.000000
-0.468589 -0.452612 0.025086 0.800000 0.200000 0.500000
0.472059 0.395791 0.154449 0.000000 0.000000 1.000000
-0.808473 0.331400 0.202550 0.300000 0.000000 0.600000
0.449578 0.260717 -0.298844 0.600000 0.000000 0.300000
0.745783 0.393422 -0.298844 0.600000 0.000000 0.300000
0.836913 0.212048 0.065173 0.600000 0.300000 0.000000
0.747814 0.421500 -0.106271 0.000000 0.000000 1.000000
-0.108451 -0.452612 -0.220461 0.800000 0.200000 0.500000
0.219779 0.017900 0.298728 0.600000 0.000000 0.300000
-0.741126 -0.435984 0.253903 0.500000 0.000000 0.500000
0.387958 0.220881 0.298727 0.600000 0.000000 0.300000
0.455410 0.419148 -0.298844 0.600000 0.000000 0.300000
-0.156472 0.366014 -0.298844 0.600000 0.000000 0.300000
0.687166 0.125215 -0.298844 0.600000 0.000000 0.300000
-0.096286 0.327768 0.330992 0.000000 0.500000 0.500000
0.049655 -0.075442 0.292467 1.000000 0.000000 0.000000
0.033152 0.127195 0.253903 1.000000 0.000000 0.000000
0.675246 0.395791 -0.034924 0.000000 0.000000 1.000000
0.678064 -0.426903 -0.245792 0.800000 0.200000 0.500000
0.373051 -0.426903 -0.169719 0.800000 0.200000 0.500000
-0.834183 -0.105800 0.144864 0.300000 0.000000 0.600000
-0.834183 0.210562 -0.062104 0.300000 0.000000 0.600000
0.259785 0.421500 -0.003492 0.000000 0.000000 1.000000
