ply
format ascii 1.0
element vertex 1267
property float x
property float y
property float z
property uchar red
property uchar green
property uchar blue
end_header
0.734965 0.049360 0.292428 153 0 76
-0.526471 0.395791 -0.057102 0 0 255
0.632066 0.048211 -0.279562 153 0 76
0.270340 0.370081 0.280081 0 127 127
0.139427 0.055326 0.298728 153 0 76
0.637001 0.421500 0.172231 0 0 255
0.074016 -0.042771 0.292428 153 0 76
0.811204 0.307838 0.063396 153 76 0
-0.089702 0.202329 0.330992 0 127 127
0.150532 0.331738 0.292428 153 0 76
-0.000428 0.309800 0.253903 255 0 0
0.780504 -0.476895 -0.298844 76 153 0
0.056822 -0.198979 0.330992 153 0 76
-0.808473 0.276840 0.120982 76 0 153
0.335935 0.421500 0.097282 0 0 255
0.566846 -0.049409 0.331031 153 0 76
-0.247453 -0.082160 0.298728 0 127 127
-0.820185 0.042093 0.292467 127 127 0
-0.445379 0.447209 -0.318805 153 0 76
0.203910 0.094388 -0.298844 153 0 76
-0.584284 -0.366412 -0.279562 153 0 76
-0.374066 0.192779 -0.298844 153 0 76
-0.610258 0.447209 0.273129 0 127 127
-0.250598 0.395791 -0.157822 0 0 255
0.029639 -0.050809 0.253903 255 0 0
0.000586 0.318673 -0.279562 153 0 76
0.491247 0.421500 -0.014762 0 0 255
-0.194023 -0.401194 0.265489 127 0 127
0.686295 0.395791 0.043822 0 0 255
-0.502970 -0.452612 0.210309 204 51 127
-0.764842 0.421500 0.021851 0 0 255
-0.291669 0.395791 0.201143 0 0 255
-0.772865 0.309113 0.253903 127 127 0
0.681384 -0.368279 0.330992 153 0 76
0.197531 0.218040 0.327821 153 0 76
0.811204 -0.277769 -0.000505 153 76 0
-0.665211 -0.191702 -0.279562 153 0 76
-0.834183 -0.027268 -0.006323 76 0 153
0.101129 0.337212 -0.324553 153 0 76
0.388737 -0.426903 -0.015105 204 51 127
0.477320 -0.426903 -0.114968 204 51 127
-0.769910 -0.160206 0.257403 127 127 0
0.685578 -0.250695 -0.298844 153 0 76
0.723850 0.182573 0.292428 153 0 76
-0.323420 0.124435 0.298728 0 127 127
-0.489757 0.202893 -0.298844 153 0 76
0.046759 -0.452612 0.101488 204 51 127
-0.252416 -0.426903 -0.211474 204 51 127
0.685348 0.383479 -0.324553 153 0 76
0.836913 0.251875 0.173838 153 76 0
-0.396798 0.395791 -0.243707 0 0 255
0.811204 0.132875 0.030125 153 76 0
0.650947 -0.070935 0.298728 153 0 76
0.494085 -0.452612 -0.014515 204 51 127
-0.557785 0.081393 0.298728 0 127 127
-0.754627 -0.380038 -0.279562 153 0 76
0.475615 -0.331948 -0.324553 76 153 0
0.078493 0.062410 0.255535 255 0 0
0.560308 -0.452612 -0.083769 204 51 127
-0.808473 -0.054587 -0.115650 76 0 153
-0.483936 0.421500 0.221288 0 0 255
0.246875 -0.288789 -0.298844 153 0 76
-0.352626 -0.295149 -0.279562 153 0 76
-0.146321 0.330272 -0.324553 153 0 76
0.613145 -0.426903 -0.038240 204 51 127
-0.024215 -0.426903 0.021490 204 51 127
0.441460 -0.452612 -0.182597 204 51 127
-0.518295 -0.055969 -0.279562 153 0 76
-0.318927 0.093376 -0.279562 153 0 76
-0.311496 0.265956 -0.279562 153 0 76
-0.498820 -0.324066 -0.324051 76 153 0
-0.338485 0.395791 -0.215745 0 0 255
-0.432892 0.342100 -0.279562 153 0 76
0.741761 0.395791 -0.269156 0 0 255
0.759035 -0.452612 0.240977 204 51 127
-0.168824 0.009326 0.319114 0 127 127
0.065270 0.292954 -0.322230 153 0 76
-0.673216 -0.351317 -0.324553 76 153 0
0.811204 -0.034476 0.147011 153 76 0
0.553370 -0.452612 -0.265274 204 51 127
0.087362 -0.426903 -0.288103 76 153 0
0.356583 0.305933 -0.279562 153 0 76
-0.834183 0.391314 0.245249 76 0 153
0.836913 -0.382381 0.029045 153 76 0
-0.743153 -0.047043 0.292428 0 127 127
0.806906 -0.426903 0.142508 204 51 127
0.750588 -0.324170 -0.279562 153 0 76
-0.742775 0.043068 0.330992 0 127 127
0.811204 -0.081751 0.042770 153 76 0
0.588008 -0.217574 -0.279562 153 0 76
0.791304 -0.380499 -0.279562 153 0 76
-0.705421 -0.452612 -0.141139 204 51 127
0.341765 0.395791 0.016280 0 0 255
0.241901 -0.452612 0.192544 204 51 127
-0.524102 0.262498 -0.279562 153 0 76
0.517128 -0.426903 0.094350 204 51 127
0.529894 -0.426902 0.312902 153 0 76
-0.684807 0.013536 -0.298844 153 76 0
-0.129476 0.395791 -0.103511 0 0 255
-0.217901 -0.314755 -0.279562 153 0 76
0.458174 0.383684 -0.324553 153 0 76
0.157077 -0.339160 -0.324553 76 153 0
0.064851 0.421500 -0.199096 0 0 255
-0.169163 0.395791 0.104559 0 0 255
-0.505075 0.409919 0.292467 0 127 127
-0.598196 -0.426903 0.069036 204 51 127
-0.729983 -0.426903 -0.043722 204 51 127
0.035331 -0.441504 -0.324553 76 153 0
-0.283060 0.395791 -0.058088 0 0 255
0.705383 -0.416793 -0.324553 76 153 0
-0.110750 0.340388 0.330992 0 127 127
0.836913 -0.333069 -0.306876 153 76 0
0.133677 -0.271311 0.298728 153 0 76
0.737579 0.227530 -0.279562 153 0 76
0.715623 0.084887 0.330992 153 0 76
-0.271319 0.395791 0.064551 0 0 255
-0.450319 0.421500 -0.202171 0 0 255
-0.834183 0.312387 -0.033545 76 0 153
-0.528116 0.158149 0.331031 0 127 127
-0.075762 -0.024738 0.268426 255 0 0
0.399515 0.370081 0.267423 0 127 127
-0.170767 -0.477267 -0.298844 76 153 0
0.276963 0.244240 0.315891 153 0 76
-0.034662 -0.070844 0.292428 0 127 127
0.811204 -0.337587 0.170306 153 76 0
0.547809 0.395791 0.116494 0 0 255
-0.052797 0.089154 -0.279562 153 0 76
-0.227321 -0.452612 0.238946 204 51 127
0.636519 0.309446 -0.279562 153 0 76
0.585965 -0.425155 -0.324553 76 153 0
-0.569354 -0.140599 -0.279562 153 0 76
-0.036850 0.421500 -0.017860 0 0 255
0.849768 -0.306941 0.258106 0 255 0
-0.834183 -0.424350 -0.027938 76 0 153
-0.366522 -0.452612 -0.174967 204 51 127
0.304284 -0.452612 -0.265165 204 51 127
0.311374 -0.358466 -0.279562 153 0 76
-0.051565 -0.341778 -0.279562 153 0 76
-0.729623 0.421500 -0.252992 0 0 255
-0.398320 0.323012 0.292428 0 127 127
-0.611895 0.421500 -0.098954 0 0 255
0.667284 -0.426903 -0.225980 204 51 127
-0.636079 -0.452612 -0.220466 204 51 127
0.517694 0.390895 0.322538 153 0 76
-0.808473 0.353433 -0.274060 76 0 153
-0.353630 -0.104942 0.298728 0 127 127
-0.773051 -0.452612 0.097057 204 51 127
-0.513655 0.421500 -0.171136 0 0 255
-0.807703 -0.131560 0.292467 0 127 127
-0.808473 0.172567 -0.071221 76 0 153
-0.386567 -0.426903 -0.012583 204 51 127
-0.834183 -0.212461 -0.043838 76 0 153
-0.146708 -0.146456 -0.279562 153 0 76
0.772641 0.124526 0.272460 0 255 0
0.598979 0.097746 0.298728 153 0 76
-0.808473 -0.357728 -0.135125 76 0 153
0.284771 0.440144 0.253903 0 127 127
0.484036 0.421500 -0.237670 0 0 255
-0.714938 0.411194 0.292467 0 127 127
0.023254 0.446945 -0.324553 153 0 76
-0.716419 0.395791 0.159398 0 0 255
-0.794077 -0.302597 0.318130 0 127 127
0.811204 0.166037 0.225484 153 76 0
0.288247 -0.426903 -0.096132 204 51 127
0.130486 -0.476488 0.253903 127 0 127
-0.616226 0.104530 -0.298844 153 0 76
-0.816768 0.267529 -0.324553 76 0 153
-0.104042 0.395791 0.113479 0 0 255
0.553231 0.395791 0.009608 0 0 255
0.274530 0.421500 -0.125143 0 0 255
-0.551920 0.353211 0.330992 0 127 127
-0.482706 -0.298682 0.310999 0 127 127
0.845754 -0.011208 0.292467 0 255 0
-0.073696 0.395791 0.067226 0 0 255
-0.193830 -0.452612 -0.134922 204 51 127
-0.382111 0.043028 0.331031 0 127 127
-0.793994 0.198000 -0.279562 76 0 153
-0.458341 0.395791 0.120921 0 0 255
-0.250662 -0.278540 0.298728 0 127 127
0.117101 0.367917 -0.279562 153 0 76
0.455765 -0.426903 0.175217 204 51 127
0.566518 0.347017 0.292428 153 0 76
0.174425 -0.426903 -0.203971 204 51 127
-0.055138 -0.184532 0.330992 0 127 127
0.018819 0.000962 0.292428 255 0 0
0.164107 -0.452612 0.203578 204 51 127
-0.568137 -0.421854 -0.324553 76 153 0
-0.502685 -0.098111 0.331031 0 127 127
-0.727809 -0.110674 0.292428 0 127 127
0.836913 0.439773 -0.267968 153 76 0
-0.810377 0.447209 0.178216 76 0 153
0.782623 -0.452612 -0.166515 204 51 127
0.224435 0.131729 0.331031 153 0 76
0.401635 -0.452612 0.093237 204 51 127
-0.808473 0.335937 -0.116173 76 0 153
-0.291787 -0.452612 0.185347 204 51 127
-0.834183 -0.270036 -0.126926 76 0 153
0.059081 0.193174 -0.298844 153 0 76
-0.142230 0.395791 -0.262108 0 0 255
0.505587 -0.452612 -0.218220 204 51 127
-0.277144 0.171220 0.298728 0 127 127
0.018787 0.421500 -0.097610 0 0 255
-0.436905 -0.477899 0.292467 127 0 127
-0.808473 -0.134236 0.171256 76 0 153
-0.834183 -0.397645 -0.311916 76 0 153
-0.416957 0.126002 -0.279562 153 76 0
-0.808473 0.156771 -0.205958 76 0 153
0.026997 0.017476 -0.279562 153 0 76
-0.565319 0.421500 0.233937 0 0 255
-0.294819 -0.361992 -0.324553 76 153 0
0.811204 -0.171949 -0.021963 153 76 0
-0.591218 -0.452612 -0.134521 204 51 127
-0.177520 0.289489 0.326713 0 127 127
0.836913 0.305449 0.152824 153 76 0
0.743751 0.263150 0.330992 153 0 76
0.450760 -0.024810 -0.279562 153 0 76
0.020935 -0.281624 0.292467 153 0 76
0.811204 0.253822 -0.009019 153 76 0
-0.346104 0.421500 -0.081922 0 0 255
0.665501 0.240022 -0.298844 153 0 76
0.793217 0.421500 -0.030853 0 0 255
0.133658 0.435760 -0.324553 153 0 76
-0.005527 -0.373050 -0.279562 153 0 76
0.770090 0.421500 0.059408 0 0 255
0.219784 0.421500 0.236364 0 0 255
0.180519 -0.452612 0.117269 204 51 127
0.836913 -0.297905 -0.146040 153 76 0
-0.178954 -0.069172 0.327454 0 127 127
-0.590903 -0.152564 0.298728 0 127 127
-0.820852 -0.051067 -0.324553 76 0 153
-0.666441 0.395791 0.048485 0 0 255
0.469007 0.317135 -0.279562 153 0 76
0.070445 -0.358618 -0.279562 153 0 76
-0.728038 -0.201352 -0.298844 153 0 76
0.228435 0.211672 -0.298844 153 0 76
0.811204 0.036626 -0.102309 153 76 0
-0.536666 0.421500 -0.283839 0 0 255
0.172032 -0.434202 -0.324553 76 153 0
-0.507779 -0.426903 0.103057 204 51 127
-0.646209 -0.426903 0.010208 204 51 127
-0.834183 0.095617 -0.267718 76 0 153
-0.808473 -0.175634 -0.130829 76 0 153
-0.727938 -0.173853 0.292428 0 127 127
0.239271 -0.401194 0.256570 127 0 127
-0.347601 0.305667 -0.279562 153 0 76
-0.342849 0.244897 0.315618 0 127 127
-0.476022 -0.426903 -0.274872 204 51 127
-0.808473 -0.218764 0.008349 76 0 153
-0.779174 -0.452612 0.204143 204 51 127
0.263890 0.291196 0.292428 153 0 76
-0.834183 -0.020549 0.204976 76 0 153
-0.081322 -0.094398 0.330992 0 127 127
-0.437392 -0.097218 -0.298844 153 0 76
-0.346455 -0.474004 0.253903 127 0 127
0.021386 -0.074118 -0.279562 153 0 76
0.132184 0.421500 0.088889 0 0 255
-0.834183 -0.120752 0.012742 76 0 153
-0.344762 -0.014655 -0.279562 153 0 76
-0.101032 -0.452612 0.135621 204 51 127
-0.800873 -0.426903 -0.193092 204 51 127
0.811204 0.130926 -0.282875 153 0 76
0.566181 0.004003 0.331031 153 0 76
0.836913 0.071847 0.225894 153 76 0
-0.725044 0.361380 0.330992 0 127 127
-0.232375 0.110478 -0.298844 153 0 76
-0.202096 0.421500 0.145551 0 0 255
0.130879 0.258563 -0.298844 153 0 76
0.363131 -0.162171 0.331031 153 0 76
-0.670055 -0.426903 0.104846 204 51 127
-0.227337 0.016831 0.298728 0 127 127
0.836913 -0.377793 0.125310 153 76 0
-0.538253 -0.426903 0.037392 204 51 127
0.011398 -0.117237 0.324482 153 0 76
-0.590866 -0.415006 0.292428 127 0 127
0.659806 0.395791 -0.110739 0 0 255
0.446716 0.109210 0.298728 153 0 76
-0.323132 -0.452612 -0.219814 204 51 127
0.387766 -0.452612 -0.233590 204 51 127
0.035135 0.395791 0.042279 0 0 255
-0.807645 -0.429873 0.292467 127 127 0
-0.619089 -0.465056 0.292467 127 0 127
-0.319399 0.406624 0.292467 0 127 127
-0.053403 0.447209 -0.313241 153 0 76
0.695160 0.159200 0.330578 153 0 76
0.325318 0.261735 -0.298844 153 0 76
-0.015985 0.164887 0.330992 0 127 127
0.372756 0.301023 0.292428 153 0 76
0.772641 -0.340531 0.263316 0 255 0
-0.304232 -0.401194 0.264613 127 0 127
-0.223565 0.121974 0.331031 0 127 127
0.093341 -0.426903 0.140080 204 51 127
0.120984 -0.426903 -0.195898 204 51 127
-0.049823 -0.426902 0.313182 0 127 127
0.018791 -0.360945 0.292467 255 0 0
-0.675941 0.395791 -0.206246 0 0 255
0.727144 -0.173805 0.292428 153 0 76
0.836913 -0.106010 0.003388 153 76 0
-0.094253 0.319605 -0.324553 153 0 76
-0.325439 0.029510 0.298728 0 127 127
-0.406932 0.150625 0.298728 0 127 127
-0.808473 0.111312 0.234095 76 0 153
0.799456 0.403195 -0.324553 153 0 76
-0.166281 -0.426903 -0.236484 204 51 127
0.738756 0.370081 0.280039 0 127 127
-0.068711 -0.463766 -0.298844 76 153 0
0.319967 -0.030450 -0.298844 153 0 76
-0.144590 0.058650 -0.279562 153 0 76
-0.834183 -0.464806 0.216927 76 0 153
0.740470 -0.097827 0.292428 153 0 76
0.318785 0.167501 0.298728 153 0 76
0.452891 0.086404 -0.279562 153 0 76
-0.001575 0.395791 -0.246964 0 0 255
0.781540 -0.426903 0.069323 204 51 127
-0.514368 -0.458547 0.292467 127 0 127
-0.020921 0.339306 0.292467 255 0 0
-0.808473 0.368952 0.124290 76 0 153
-0.721653 -0.356775 0.292428 0 127 127
-0.395956 -0.421264 -0.324553 76 153 0
0.694704 -0.426903 -0.159984 204 51 127
-0.510367 0.395791 0.042635 0 0 255
0.836913 0.442130 0.002552 153 76 0
-0.834183 -0.180032 -0.259135 76 0 153
0.410342 0.312449 -0.279562 153 0 76
0.182792 0.421500 -0.118808 0 0 255
-0.808473 0.065629 0.151493 76 0 153
-0.477100 0.299668 -0.324553 153 0 76
-0.728163 -0.275740 -0.279562 153 0 76
0.836913 -0.004440 -0.004928 153 76 0
-0.200560 -0.213920 -0.279562 153 0 76
-0.035665 -0.268077 0.292428 255 0 0
-0.234361 -0.452612 -0.092316 204 51 127
0.090933 -0.452612 0.013122 204 51 127
0.409850 0.421500 -0.014517 0 0 255
0.399627 0.421500 0.125223 0 0 255
-0.597152 0.206199 -0.279562 153 0 76
0.467364 -0.426049 0.294255 127 0 127
0.836913 -0.466714 -0.175278 153 76 0
0.734636 -0.401194 0.282318 153 0 76
-0.530555 -0.365670 -0.324553 76 153 0
-0.834183 0.384210 -0.128451 76 0 153
0.078493 -0.343705 0.258966 255 0 0
0.726864 -0.002957 -0.298844 153 0 76
-0.180453 0.370081 0.270561 0 127 127
-0.370821 0.202012 0.331031 0 127 127
0.396585 0.061668 0.298728 153 0 76
-0.134813 -0.087287 -0.298844 153 0 76
-0.753452 -0.125679 -0.298844 153 0 76
-0.069598 0.421500 -0.269983 0 0 255
0.423103 -0.426903 -0.284704 153 0 76
0.783040 0.311177 0.253903 0 255 0
0.096115 0.397654 -0.324553 153 0 76
0.028942 -0.150915 -0.298844 153 0 76
-0.779744 -0.452612 -0.079639 204 51 127
0.618664 -0.344347 -0.279562 153 0 76
-0.398499 0.421500 0.178063 0 0 255
0.069996 -0.301563 -0.279562 153 0 76
0.253654 -0.426903 -0.169231 204 51 127
-0.834183 0.237085 -0.049927 76 0 153
-0.221376 0.029186 -0.298844 153 0 76
0.730845 -0.426903 0.142124 204 51 127
-0.181795 -0.464647 0.292467 127 0 127
0.366854 0.396045 -0.324553 153 0 76
0.730266 0.395791 -0.124241 0 0 255
0.135897 0.161579 0.298728 153 0 76
-0.810512 0.318196 0.292467 127 127 0
-0.668555 -0.410413 -0.324553 76 153 0
-0.302452 -0.366618 0.379309 76 153 0
-0.610705 -0.316806 0.323538 0 127 127
0.836913 -0.474360 -0.072140 153 76 0
-0.671471 0.395791 0.197468 0 0 255
-0.200492 0.186406 -0.279562 153 0 76
-0.713268 0.365080 -0.279562 153 0 76
0.228340 0.332382 0.292428 153 0 76
0.301216 -0.401194 0.274349 127 0 127
-0.543537 -0.235016 0.331031 0 127 127
0.218199 -0.204079 -0.279562 153 0 76
0.811204 -0.147375 0.218236 153 76 0
-0.378143 -0.452612 0.100136 204 51 127
0.489716 -0.452612 0.235485 204 51 127
0.348087 0.013364 0.298728 153 0 76
0.765416 0.266751 -0.298844 153 0 76
-0.532341 -0.375059 0.292428 0 127 127
-0.312451 -0.452612 -0.035629 204 51 127
0.798345 -0.143513 0.308174 153 0 76
-0.782964 0.193782 0.253903 127 127 0
-0.490523 0.395791 -0.295960 0 0 255
-0.585036 -0.028359 -0.279562 153 0 76
-0.689187 -0.288653 0.326648 0 127 127
-0.595713 0.357193 -0.324553 153 0 76
0.285577 -0.088219 0.298728 153 0 76
0.502560 -0.160890 -0.279562 153 0 76
-0.847037 -0.225336 0.254065 76 0 153
-0.039526 0.197348 -0.279562 153 0 76
0.589766 -0.452612 -0.177411 204 51 127
-0.808473 -0.260767 -0.199147 76 0 153
-0.210243 0.221149 0.298728 0 127 127
-0.179841 0.421500 -0.024133 0 0 255
-0.444914 -0.438957 -0.324553 76 153 0
0.582549 -0.418434 0.324942 153 0 76
-0.181645 0.191057 0.331031 0 127 127
-0.137452 -0.369127 -0.324553 76 153 0
0.836913 -0.354245 0.224032 153 76 0
-0.156174 -0.397791 0.330992 0 127 127
-0.414402 0.269214 -0.279562 153 0 76
-0.172469 -0.039599 -0.298844 153 0 76
0.348951 0.395791 -0.139721 0 0 255
0.836913 -0.038985 -0.154730 153 76 0
0.158901 -0.387646 -0.279562 153 0 76
-0.844210 -0.309240 0.292467 127 127 0
0.811204 -0.378614 -0.017062 153 76 0
-0.808473 -0.119423 -0.168545 76 0 153
-0.358039 -0.425887 0.316792 0 127 127
0.767150 -0.452612 -0.015173 204 51 127
0.479935 0.421500 0.084292 0 0 255
-0.834183 0.074298 -0.058162 76 0 153
-0.724760 0.145844 -0.298844 153 0 76
-0.048324 0.395791 -0.091677 0 0 255
0.622293 0.395791 0.068648 0 0 255
-0.834183 0.238127 0.244372 76 0 153
-0.633541 -0.364852 0.292428 0 127 127
-0.296054 0.308886 0.330992 0 127 127
-0.044955 -0.216943 0.292467 255 0 0
-0.812850 -0.153060 -0.324553 76 0 153
0.478161 0.370081 0.281978 153 0 76
0.836913 -0.204788 -0.138329 153 76 0
0.743626 -0.063902 0.330992 153 0 76
-0.834183 -0.080522 0.227869 76 0 153
0.048009 -0.452612 -0.139625 204 51 127
0.562527 0.421500 -0.148844 0 0 255
-0.229998 -0.426903 0.135153 204 51 127
0.397090 -0.452612 0.215719 204 51 127
-0.346601 0.421500 0.132137 0 0 255
0.406525 0.395791 -0.071668 0 0 255
0.352253 0.421500 -0.078554 0 0 255
0.797526 0.447148 0.292467 0 255 0
0.225700 -0.003747 0.298728 153 0 76
0.497321 0.163476 0.298728 153 0 76
0.811204 0.386927 0.213980 0 0 255
-0.240232 0.421500 0.033350 0 0 255
-0.808473 -0.387171 -0.224069 76 0 153
0.030217 0.421500 0.158292 0 0 255
0.269057 -0.376558 -0.324553 76 153 0
-0.266094 -0.126949 0.331031 0 127 127
0.383447 0.421500 -0.276602 0 0 255
0.811204 0.276957 -0.105143 153 76 0
-0.617334 -0.452612 0.243160 127 0 127
-0.619044 0.395791 -0.155821 0 0 255
-0.413665 0.421500 -0.142670 0 0 255
-0.797549 -0.414639 -0.279562 153 0 76
0.023503 -0.208941 0.292428 255 0 0
0.720142 0.434497 -0.324553 153 0 76
-0.834183 0.256139 0.029820 76 0 153
0.751209 0.164053 0.330992 153 0 76
-0.710288 0.296291 0.330992 0 127 127
-0.161916 0.065281 0.298728 0 127 127
0.803284 0.068388 -0.279562 153 0 76
0.798347 -0.372842 0.300877 153 0 76
-0.644176 -0.251627 -0.279562 153 0 76
0.654189 0.395791 -0.018658 0 0 255
0.323870 0.395791 -0.217136 0 0 255
0.468872 0.333281 0.330992 153 0 76
-0.476490 0.335837 0.292428 0 127 127
-0.834183 0.293641 0.239422 76 0 153
0.634183 0.020149 0.318565 153 0 76
0.042442 0.421500 -0.248224 0 0 255
-0.611849 0.195258 0.331031 0 127 127
0.378780 0.326584 -0.324553 153 0 76
0.811204 -0.017030 0.083914 153 76 0
0.422534 0.294480 0.330992 153 0 76
0.705270 -0.452612 -0.003787 204 51 127
0.718712 0.074494 -0.279562 153 0 76
0.290486 -0.107757 -0.279562 153 0 76
0.367583 -0.064894 0.298728 153 0 76
0.716113 0.395791 -0.182520 0 0 255
0.836913 0.352423 -0.023806 153 76 0
0.528003 0.447209 -0.322974 153 0 76
-0.430432 -0.150579 0.331031 0 127 127
0.452818 0.447209 0.254450 0 127 127
-0.623556 0.421500 -0.021048 0 0 255
0.688370 0.247640 0.292428 153 0 76
-0.628230 0.395791 -0.275508 0 0 255
-0.834183 -0.337692 -0.307322 76 0 153
-0.368027 -0.463455 -0.298844 76 153 0
-0.168713 0.288236 -0.279562 153 0 76
0.268844 0.395791 0.014507 0 0 255
0.537678 0.352500 -0.279562 153 0 76
0.281098 0.297198 -0.324553 153 0 76
-0.060966 -0.080726 -0.279562 153 0 76
0.755205 0.395791 -0.215681 0 0 255
-0.357395 0.331380 -0.324553 153 0 76
-0.508150 -0.173046 -0.279562 153 0 76
0.430716 0.191262 0.331031 153 0 76
0.065335 0.337269 -0.279562 153 0 76
0.402221 -0.426903 0.040393 204 51 127
0.410677 -0.286000 -0.279562 153 0 76
-0.116660 -0.258296 -0.279562 153 0 76
0.227686 -0.327477 -0.324553 76 153 0
0.502597 -0.344376 0.330992 153 0 76
0.748444 -0.452612 -0.268729 204 51 127
-0.414700 -0.364811 0.292428 0 127 127
-0.052980 -0.426903 0.111470 204 51 127
0.465912 0.395791 0.196802 0 0 255
0.742818 0.421500 -0.030658 0 0 255
0.490544 0.421500 -0.173098 0 0 255
0.190172 -0.118353 0.331031 153 0 76
-0.790383 0.358964 0.253903 127 127 0
-0.341043 -0.247145 0.330801 0 127 127
-0.275841 -0.470198 -0.298844 76 153 0
-0.583570 0.283674 0.292428 0 127 127
-0.165284 -0.323034 0.327604 0 127 127
0.811204 0.336403 -0.172066 153 76 0
0.786610 -0.261589 0.325933 153 0 76
0.348731 -0.434301 -0.324553 76 153 0
0.691724 0.328463 0.330992 153 0 76
-0.113975 -0.452612 -0.116616 204 51 127
-0.795614 -0.368059 0.308068 0 127 127
0.811204 0.239657 -0.168255 153 76 0
-0.435302 -0.388635 -0.324553 76 153 0
-0.808473 -0.293211 0.024248 76 0 153
0.447365 -0.282547 0.298728 153 0 76
0.030034 0.389994 0.323393 153 0 76
-0.808473 -0.082526 -0.206220 76 0 153
-0.693196 -0.464996 0.292467 127 0 127
0.813695 0.219683 -0.324553 153 76 0
0.006129 0.364592 -0.298844 153 0 76
0.241322 -0.418050 -0.324553 76 153 0
0.557030 0.421500 -0.098281 0 0 255
0.100410 0.421500 -0.143664 0 0 255
-0.516974 -0.459145 -0.324553 76 153 0
-0.744928 0.135747 0.330992 0 127 127
-0.231262 0.421500 0.246333 0 0 255
-0.834183 0.279651 -0.248976 76 0 153
0.376976 0.160062 -0.298844 153 0 76
-0.834183 0.132287 -0.112836 76 0 153
0.180924 0.411557 0.292467 0 127 127
0.183178 0.079098 0.330559 153 0 76
0.627366 0.256820 0.311299 153 0 76
0.811204 0.394447 -0.186670 153 76 0
-0.272223 -0.435897 0.292467 127 0 127
0.748095 0.232031 0.292428 153 0 76
-0.808473 -0.025950 -0.159556 76 0 153
0.689727 0.421500 -0.279401 0 0 255
0.836913 0.185918 -0.099455 153 76 0
0.766338 0.349494 -0.279562 153 0 76
0.074584 -0.232275 0.292467 153 0 76
0.099139 -0.370918 0.330992 153 0 76
0.530252 -0.389548 -0.279562 76 153 0
0.438061 -0.016776 0.331031 153 0 76
-0.335239 0.430932 -0.324553 153 0 76
-0.089074 0.310784 0.292428 0 127 127
-0.215010 -0.326362 0.330992 0 127 127
0.836913 -0.032852 -0.213258 153 76 0
0.106272 -0.297265 0.330992 153 0 76
-0.808473 0.343387 0.057271 76 0 153
-0.362283 -0.378552 0.330992 0 127 127
0.636895 0.421500 -0.166272 0 0 255
0.221156 -0.201046 0.298728 153 0 76
0.811204 -0.120445 -0.087224 153 76 0
0.107993 0.073352 -0.298844 153 0 76
0.399893 -0.358705 -0.279562 76 153 0
0.836913 -0.287394 0.088992 153 76 0
0.798355 0.337126 0.312317 153 0 76
-0.211541 -0.185774 0.331031 0 127 127
-0.032228 -0.452612 0.234183 204 51 127
-0.683950 -0.042003 0.292428 0 127 127
-0.808473 -0.162635 -0.218648 76 0 153
-0.220741 -0.121340 -0.298844 153 0 76
0.807043 -0.043413 0.253903 0 255 0
0.574349 -0.086109 0.298728 153 0 76
-0.617372 -0.192500 0.329448 0 127 127
-0.834183 0.153006 0.155657 76 0 153
-0.565692 -0.295849 -0.279562 153 0 76
-0.844335 -0.420263 0.253903 127 127 0
-0.408117 0.287320 0.325120 0 127 127
0.481126 -0.426903 0.028866 204 51 127
-0.308422 -0.401866 -0.298844 76 153 0
0.029179 -0.432506 0.292467 153 0 76
-0.834183 0.305234 0.021564 76 0 153
0.242908 -0.452612 -0.252670 204 51 127
-0.107452 -0.316188 0.292428 0 127 127
0.075394 0.120539 0.330992 153 0 76
-0.100044 0.232154 0.292428 0 127 127
-0.834183 -0.370416 0.205805 76 0 153
-0.640628 -0.426903 -0.054195 204 51 127
-0.039499 0.197864 0.292467 255 0 0
0.265874 0.400799 -0.298844 153 0 76
0.176009 0.289558 0.292428 153 0 76
0.068172 0.442077 0.292467 0 127 127
-0.649853 -0.452612 -0.276935 204 51 127
-0.627885 0.126093 0.319132 0 127 127
0.769524 -0.199942 -0.298844 153 0 76
0.260028 0.080990 0.331031 153 0 76
0.317002 -0.452612 -0.194208 204 51 127
-0.760875 0.395791 -0.218450 0 0 255
0.341319 -0.339172 -0.324553 76 153 0
0.193397 0.342688 -0.324553 153 0 76
0.772641 -0.213029 0.266735 0 255 0
0.202470 0.421500 -0.065398 0 0 255
0.181356 0.421500 0.088284 0 0 255
-0.808473 0.023263 -0.320780 76 0 153
0.811204 -0.378041 -0.190092 153 76 0
-0.580452 -0.077502 0.331031 0 127 127
0.655996 -0.421208 -0.279562 204 51 127
-0.543006 -0.426903 -0.191884 204 51 127
-0.797504 -0.283582 -0.279562 76 0 153
0.521671 -0.046455 0.298728 153 0 76
-0.697618 0.395791 -0.051645 0 0 255
-0.430013 -0.294517 -0.298844 153 0 76
0.836913 0.094921 -0.252394 153 76 0
0.050658 0.218103 0.292467 153 0 76
-0.729784 0.395791 -0.000442 0 0 255
0.004196 -0.452612 -0.067033 204 51 127
0.550355 0.001769 -0.298844 153 0 76
-0.051738 0.421500 -0.181659 0 0 255
0.759531 0.395791 0.158407 0 0 255
-0.805377 -0.375573 0.253903 76 0 153
0.078493 -0.141150 0.276820 255 0 0
0.131226 0.141759 -0.298844 153 0 76
-0.409467 -0.202256 0.298728 0 127 127
-0.035345 -0.293105 -0.279562 153 0 76
-0.801216 -0.113146 -0.279562 153 0 76
-0.726042 0.395791 -0.154128 0 0 255
0.351275 -0.320168 0.326484 153 0 76
0.836913 0.342516 0.224393 153 76 0
-0.552896 -0.426903 -0.029086 204 51 127
0.394535 0.035538 -0.298844 153 0 76
-0.502118 -0.385414 0.330992 0 127 127
0.567880 -0.102205 -0.298844 153 0 76
0.046265 0.295085 0.292467 255 0 0
-0.459573 0.393633 0.319432 0 127 127
-0.632038 0.282585 0.312268 0 127 127
-0.063846 -0.194062 0.253903 255 0 0
0.353423 -0.210201 0.331031 153 0 76
-0.083238 0.184987 -0.298844 153 0 76
0.589780 -0.325288 0.292428 153 0 76
0.836913 0.346738 0.049676 153 76 0
-0.178833 -0.452612 0.061208 204 51 127
0.836913 0.131951 -0.095366 153 76 0
-0.608525 -0.452612 0.182703 204 51 127
0.550430 0.163361 0.298728 153 0 76
0.535918 0.080920 0.331031 153 0 76
0.613272 -0.426903 0.147743 204 51 127
-0.834183 0.111039 -0.169940 76 0 153
0.519785 0.197023 -0.279562 153 0 76
-0.486639 0.047887 0.298728 0 127 127
0.811204 -0.178472 -0.283711 153 76 0
-0.109612 0.421500 0.242470 0 127 127
-0.834183 0.212306 0.181466 76 0 153
0.459227 -0.372604 0.292428 153 0 76
0.434355 0.242412 -0.298844 153 0 76
-0.834183 0.136032 -0.308771 76 0 153
0.811204 -0.017467 -0.045329 153 76 0
0.529105 -0.426903 0.145850 204 51 127
-0.580054 -0.006899 0.331031 0 127 127
0.597592 0.211885 -0.298844 153 0 76
0.248294 -0.426903 -0.018453 204 51 127
-0.842436 0.139865 0.292467 127 127 0
-0.245046 0.445867 -0.298844 153 0 76
-0.100207 -0.426903 -0.031405 204 51 127
0.467484 -0.426903 -0.048561 204 51 127
-0.592224 -0.203746 -0.279562 153 0 76
-0.060164 -0.151211 -0.279562 153 0 76
-0.097898 -0.373582 -0.279562 153 0 76
0.419308 0.395791 -0.228987 0 0 255
0.694088 -0.266854 0.327495 153 0 76
0.836913 -0.296701 0.172543 153 76 0
0.811204 -0.233711 0.085093 153 76 0
-0.786697 0.395791 0.057909 0 0 255
0.836913 0.401633 -0.070418 153 76 0
-0.620025 0.290789 -0.279562 153 0 76
0.221408 0.278248 -0.279562 153 0 76
0.598571 -0.235696 0.331031 153 0 76
0.817579 0.311971 -0.324553 153 76 0
0.664169 -0.087141 -0.298844 153 0 76
0.811204 -0.131685 -0.215397 153 76 0
0.600681 0.442158 0.292467 0 127 127
-0.526361 0.098997 0.331031 0 127 127
0.253518 0.421500 0.075084 0 0 255
0.250101 0.112604 -0.279562 153 0 76
-0.155602 0.421500 0.025062 0 0 255
-0.192492 -0.344602 0.292428 0 127 127
-0.298269 -0.013435 0.298728 0 127 127
0.017106 0.292954 -0.319769 153 0 76
-0.011786 -0.452612 -0.274043 204 51 127
-0.834183 0.238087 0.101708 76 0 153
0.836913 0.241204 -0.265695 153 76 0
-0.605540 0.074800 0.298728 0 127 127
0.302968 0.040618 -0.298844 153 0 76
-0.427119 -0.056847 0.298728 0 127 127
0.392234 -0.426903 -0.088925 204 51 127
0.401301 0.016963 0.331031 153 0 76
-0.026667 -0.426903 -0.199379 204 51 127
0.214539 -0.255857 -0.279562 153 0 76
-0.834183 0.254365 -0.123118 76 0 153
-0.139645 -0.210019 0.311284 0 127 127
0.527252 0.421500 0.075406 0 0 255
-0.363900 0.421500 -0.149493 0 0 255
0.126108 -0.448026 0.292467 127 0 127
-0.241951 0.379132 0.330992 0 127 127
-0.537107 -0.143324 0.331031 0 127 127
-0.273424 -0.313925 -0.298844 76 153 0
-0.834183 -0.070864 0.056859 76 0 153
0.299277 0.326264 0.292428 153 0 76
-0.335044 -0.153253 -0.298844 153 0 76
-0.792886 -0.066107 0.292467 0 127 127
0.189338 0.395791 0.008950 0 0 255
0.522971 -0.210678 0.298728 153 0 76
-0.510477 -0.055099 0.298728 0 127 127
0.725204 -0.279059 -0.298844 153 0 76
0.723647 0.416510 0.292467 0 127 127
0.149895 -0.315320 0.321743 153 0 76
0.672591 0.395791 0.146582 0 0 255
0.474786 0.023193 0.331031 153 0 76
0.311637 -0.042652 0.298728 153 0 76
-0.259811 0.421500 0.120483 0 0 255
0.108575 -0.099111 0.292428 153 0 76
-0.762498 0.324313 -0.279562 153 0 76
0.176630 -0.452612 -0.119974 204 51 127
0.463636 0.421500 -0.086628 0 0 255
-0.241522 -0.229218 0.298728 0 127 127
-0.834183 0.412412 -0.273433 76 0 153
-0.803615 0.098320 0.292467 0 127 127
-0.677453 -0.285593 -0.298844 153 0 76
0.219390 -0.462813 0.292467 127 0 127
0.133584 -0.213762 -0.279562 153 0 76
-0.425472 -0.426397 0.294728 127 0 127
0.084895 0.294559 0.330992 153 0 76
0.541527 -0.452612 -0.175862 204 51 127
0.811204 -0.246795 -0.177591 153 76 0
-0.012773 -0.011979 0.325897 0 127 127
-0.133064 0.421500 -0.054149 0 0 255
-0.479736 -0.086275 -0.279562 153 0 76
0.068722 0.091162 0.292428 153 0 76
-0.360252 -0.191625 0.331031 0 127 127
0.403055 -0.426903 -0.194676 204 51 127
-0.770015 -0.324162 -0.324553 76 153 0
0.130698 0.401956 0.292467 153 0 76
0.178716 -0.024044 0.298728 153 0 76
-0.834183 0.015187 -0.033832 76 0 153
-0.031669 0.002054 -0.279562 153 0 76
-0.229322 0.174694 0.298728 0 127 127
0.802908 -0.439015 0.253903 153 76 0
-0.414765 -0.107665 0.298728 0 127 127
-0.192986 -0.452612 0.110082 204 51 127
-0.285145 0.228562 -0.298844 153 0 76
-0.193072 0.102225 0.298728 0 127 127
-0.309765 -0.200705 -0.298844 153 0 76
0.120141 0.421500 -0.047347 0 0 255
-0.155003 -0.290831 -0.279562 153 0 76
-0.808473 0.355127 0.172983 76 0 153
0.276277 0.421500 -0.065889 0 0 255
0.039636 -0.096209 0.292467 153 0 76
0.327210 -0.452612 0.219305 204 51 127
-0.674775 0.418105 0.253903 0 127 127
-0.316150 0.373216 -0.279562 153 0 76
0.545319 0.074716 -0.279562 153 0 76
-0.377706 -0.048410 0.298728 0 127 127
-0.690125 0.062967 0.327132 0 127 127
0.501578 0.215012 0.298727 153 0 76
0.811204 0.185993 -0.218946 153 76 0
-0.468970 -0.426903 0.236016 204 51 127
-0.280499 -0.452612 -0.127996 204 51 127
-0.834183 0.184404 0.034703 76 0 153
-0.834183 -0.447708 -0.165051 76 0 153
0.523213 0.417652 0.253903 0 127 127
0.818819 -0.095811 0.292467 0 255 0
0.306388 -0.295638 0.298728 153 0 76
-0.719092 -0.099268 -0.279562 153 0 76
0.772641 0.403255 0.280892 0 255 0
-0.144092 0.441199 -0.324553 153 0 76
-0.181311 0.421500 -0.226299 0 0 255
-0.690386 -0.426903 -0.284701 76 153 0
0.739679 -0.452612 -0.093609 204 51 127
0.798290 0.235445 0.296008 0 255 0
0.811204 -0.388232 -0.094255 153 76 0
0.134865 0.421500 0.196081 0 0 255
-0.757939 0.292954 -0.321128 153 0 76
0.112837 -0.357329 -0.324553 76 153 0
0.836913 -0.026051 -0.320965 153 76 0
-0.745456 -0.426903 -0.145787 204 51 127
-0.769419 -0.424647 -0.324553 76 153 0
0.729341 0.421500 0.035513 0 0 255
-0.834183 -0.370818 -0.070023 76 0 153
-0.165086 -0.132470 0.318520 0 127 127
0.437201 -0.472640 0.253903 127 0 127
-0.505933 -0.202245 0.331031 0 127 127
0.836913 0.100691 0.128962 153 76 0
-0.526888 0.333787 0.292428 0 127 127
-0.816625 -0.478321 0.121534 76 0 153
-0.016524 -0.139285 0.292428 255 0 0
-0.319378 -0.475893 0.292467 127 0 127
0.811204 -0.053368 -0.284331 153 0 76
-0.087718 -0.263263 0.292428 0 127 127
-0.020859 0.395791 0.068433 0 0 255
-0.237518 -0.162496 -0.279562 153 0 76
0.612777 -0.426903 -0.209508 204 51 127
0.836913 -0.312277 -0.100799 153 76 0
0.836913 0.334502 -0.278493 153 76 0
-0.644253 0.405775 0.292467 0 127 127
0.243434 -0.106594 -0.279562 153 0 76
0.811204 -0.178338 0.129403 153 76 0
-0.846715 -0.275271 0.253903 127 127 0
-0.785108 -0.242885 0.325685 0 127 127
0.573600 0.395791 0.253239 0 127 127
-0.014564 -0.459171 0.292467 127 0 127
0.418716 -0.116228 -0.298844 153 0 76
-0.434613 -0.244152 0.331031 0 127 127
-0.059916 0.361605 -0.324553 153 0 76
0.223237 -0.377340 0.330992 76 0 153
0.495784 0.294777 0.330992 153 0 76
-0.251656 0.293644 0.330992 0 127 127
0.598424 0.353927 0.330992 153 0 76
0.021957 0.066123 -0.298844 153 0 76
0.613340 0.178856 0.298728 153 0 76
0.244041 -0.452612 0.134054 204 51 127
0.711662 0.004362 0.292428 153 0 76
0.836913 0.038523 -0.190369 153 76 0
-0.834183 -0.238312 0.207978 76 0 153
0.342694 0.398097 0.292467 153 0 76
0.009623 0.395791 -0.162432 0 0 255
0.280637 -0.379663 0.394749 76 0 153
-0.250366 -0.426903 0.032014 204 51 127
-0.751478 -0.194709 0.330992 0 127 127
0.133525 -0.426903 0.034625 204 51 127
0.590498 0.421500 0.027201 0 0 255
-0.603548 0.395791 0.066022 0 0 255
0.836913 0.445420 0.149561 153 76 0
0.354070 0.214649 0.298727 153 0 76
-0.187403 -0.368433 -0.324553 76 153 0
-0.099986 -0.426903 -0.202734 204 51 127
0.811204 0.110966 0.244464 153 76 0
-0.698896 0.364696 0.292428 0 127 127
0.304542 -0.408178 -0.279562 153 0 76
0.697614 0.332134 -0.324553 153 0 76
-0.314409 0.421500 0.169476 0 0 255
-0.173722 0.338777 0.330992 0 127 127
0.124057 0.421500 0.029163 0 0 255
-0.808473 0.222143 0.005070 76 0 153
0.537526 0.298544 -0.324553 153 0 76
0.536238 -0.124918 0.331031 153 0 76
-0.432779 0.395791 -0.098880 0 0 255
0.060275 0.348947 0.292467 153 0 76
-0.491670 0.395791 0.183148 0 0 255
0.632495 0.421500 -0.250830 0 0 255
-0.099119 -0.426903 0.045853 204 51 127
0.190882 0.395791 0.140302 0 0 255
0.111593 0.421500 -0.188941 0 0 255
0.363376 0.145537 0.331031 153 0 76
0.819209 -0.478321 -0.270832 153 76 0
-0.098205 -0.426903 -0.274670 204 51 127
0.554428 0.292865 0.292428 153 0 76
-0.232689 0.421500 -0.248093 0 0 255
0.421600 -0.477933 -0.324553 76 153 0
-0.808473 -0.086048 -0.076532 76 0 153
-0.154558 -0.189224 -0.298844 153 0 76
0.572290 0.296346 -0.279562 153 0 76
0.063478 -0.374827 0.292428 153 0 76
0.496266 -0.235409 0.331031 153 0 76
0.811204 0.380652 0.140356 153 76 0
-0.129133 0.447209 0.289757 0 127 127
0.712621 -0.426903 -0.241840 204 51 127
0.189404 -0.084899 0.298728 153 0 76
-0.558329 -0.375927 0.330992 0 127 127
0.445038 -0.148843 0.298728 153 0 76
-0.154644 0.101005 -0.298844 153 0 76
0.436706 -0.409080 0.330992 153 0 76
-0.719834 -0.478321 0.256783 127 0 127
-0.744806 -0.452612 0.010351 204 51 127
0.666166 -0.452612 -0.133853 204 51 127
0.735388 -0.220577 0.330992 153 0 76
0.836913 -0.259316 -0.087337 153 76 0
0.811204 -0.163476 -0.067612 153 76 0
-0.149074 -0.431720 0.292467 0 127 127
0.052270 0.379535 0.253903 0 0 255
-0.231080 0.421500 -0.120945 0 0 255
0.399870 -0.350934 0.292428 153 0 76
-0.144865 0.272205 0.298728 0 127 127
0.797142 0.158093 0.317279 153 0 76
-0.724061 -0.426903 0.174921 204 51 127
-0.207709 0.342375 -0.324553 153 0 76
-0.760210 0.090019 -0.298844 153 0 76
-0.459605 0.102877 -0.279562 153 0 76
-0.627629 0.346982 0.330992 0 127 127
-0.474934 -0.426903 -0.002265 204 51 127
0.836913 -0.008559 0.235209 153 76 0
-0.585157 0.380701 0.253903 0 127 127
0.277756 -0.187496 -0.298844 153 0 76
0.301590 0.395791 0.248210 0 0 255
0.751376 0.291515 0.292428 153 0 76
0.811572 0.203219 0.253903 0 255 0
0.742747 0.302148 -0.279562 153 0 76
0.045088 -0.254393 -0.298844 153 0 76
0.836913 -0.438530 0.175695 153 76 0
0.400523 -0.426787 0.253903 127 0 127
-0.259035 -0.452612 -0.033423 204 51 127
0.435299 0.060781 0.331031 153 0 76
0.604084 -0.426903 -0.126225 204 51 127
-0.036305 -0.452612 -0.140540 204 51 127
0.211767 -0.452612 -0.089843 204 51 127
-0.687980 -0.426903 0.218666 204 51 127
0.094328 0.217114 0.330992 153 0 76
-0.091186 -0.061010 0.292428 255 0 0
-0.649327 0.228421 0.298728 0 127 127
0.706298 -0.436157 0.292467 127 0 127
0.785384 0.359281 -0.324553 153 0 76
-0.675834 -0.426903 -0.111581 204 51 127
-0.278777 -0.317559 0.324269 0 127 127
-0.118614 0.371930 0.253903 0 127 127
0.836913 0.159340 0.103953 153 76 0
0.836913 0.115456 -0.152162 153 76 0
-0.249263 -0.452612 -0.261577 204 51 127
0.025054 -0.370840 -0.324553 76 153 0
0.226285 0.413658 -0.324553 153 0 76
-0.452301 -0.374313 0.330992 0 127 127
0.041659 0.421500 0.081289 0 0 255
-0.834183 -0.014897 -0.247246 76 0 153
-0.834183 0.155282 0.234674 76 0 153
0.811204 -0.281262 -0.252275 153 76 0
0.656532 -0.340444 0.292428 153 0 76
0.203489 -0.452612 -0.165439 204 51 127
0.110524 -0.426903 0.182932 204 51 127
-0.158560 0.187303 -0.298844 153 0 76
-0.544559 0.395791 0.144239 0 0 255
0.425806 0.421500 -0.155771 0 0 255
0.330170 -0.115588 0.298728 153 0 76
-0.744836 0.395791 0.196592 0 0 255
-0.808473 0.290825 0.164691 76 0 153
0.386060 0.395791 0.089715 0 0 255
0.504412 0.397385 -0.324553 153 0 76
0.208081 -0.368151 -0.279562 153 0 76
0.405524 -0.016396 0.298728 153 0 76
-0.753618 -0.426902 0.312749 0 127 127
0.393807 -0.248811 0.329175 153 0 76
0.561244 0.119322 0.331031 153 0 76
-0.074004 0.395791 -0.025599 0 0 255
0.036296 0.197843 0.330992 153 0 76
-0.562923 0.395791 -0.014971 0 0 255
0.042418 -0.254370 0.253903 255 0 0
-0.272709 -0.372138 0.292428 0 127 127
0.811204 0.074370 -0.011373 153 76 0
0.454157 0.395791 0.137535 0 0 255
0.282738 -0.334356 0.292428 153 0 76
-0.001153 -0.218663 -0.298844 153 0 76
0.093717 0.039974 0.292428 153 0 76
-0.484534 0.080408 0.331031 0 127 127
-0.413976 0.170384 -0.298844 153 0 76
-0.531483 0.421500 0.081745 0 0 255
-0.522812 0.340211 -0.324553 153 0 76
0.811204 0.372980 -0.110685 153 76 0
0.112652 0.103854 0.292428 153 0 76
0.162794 0.366317 -0.279562 153 0 76
0.836913 0.226538 0.077981 153 76 0
0.352207 0.422224 0.253903 0 0 255
-0.297197 -0.426903 0.222738 204 51 127
0.044918 0.395791 -0.063955 0 0 255
-0.443948 0.395791 0.210461 0 0 255
-0.542252 0.129121 0.298728 0 127 127
-0.834183 0.102453 0.055112 76 0 153
0.330764 -0.370598 0.330992 153 0 76
0.225718 -0.452612 0.048038 204 51 127
-0.393947 0.421500 0.061153 0 0 255
0.710473 0.395791 -0.050057 0 0 255
-0.415427 -0.333230 -0.279562 153 0 76
0.337197 -0.426903 -0.002056 204 51 127
0.640749 -0.304410 -0.279562 153 0 76
0.584592 0.340673 -0.324553 153 0 76
-0.834183 -0.016050 0.092412 76 0 153
0.800347 0.017273 0.292467 0 255 0
-0.431631 -0.446940 0.253903 204 51 127
0.178060 0.403208 -0.324553 153 0 76
-0.707986 0.447209 0.265311 0 127 127
-0.034893 0.266327 0.330992 0 127 127
0.239409 0.332239 -0.279562 153 0 76
0.087706 -0.000523 -0.279562 153 0 76
0.573327 0.204564 0.331031 153 0 76
0.066011 -0.070708 -0.298844 153 0 76
-0.440558 0.094951 0.298728 0 127 127
-0.808473 0.042411 -0.118885 76 0 153
-0.400304 -0.426903 -0.064421 204 51 127
-0.579707 0.421500 0.182470 0 0 255
-0.408300 0.096260 0.331031 0 127 127
-0.270252 0.395791 -0.010067 0 0 255
-0.448843 0.019022 0.298728 0 127 127
-0.539045 -0.452612 0.130348 204 51 127
0.194359 -0.367618 0.292428 153 0 76
0.484930 -0.452612 0.071118 204 51 127
0.732732 -0.452612 0.080035 204 51 127
0.305810 -0.426903 0.105196 204 51 127
0.136322 -0.426903 -0.283814 153 0 76
0.671161 0.155486 -0.298844 153 0 76
-0.139391 -0.340384 -0.279562 153 0 76
0.440620 -0.363244 -0.324553 76 153 0
0.498984 0.320375 0.292428 153 0 76
0.622863 0.432787 0.253903 0 127 127
-0.298794 0.216941 0.330311 0 127 127
0.700948 0.421500 -0.093633 0 0 255
-0.134399 0.421500 0.190169 0 0 255
0.617197 -0.426903 0.067108 204 51 127
-0.284871 0.368653 -0.324553 153 0 76
-0.808473 -0.248952 0.245365 127 127 0
0.811204 0.329603 -0.238803 153 76 0
-0.388725 -0.452612 0.033152 204 51 127
0.563955 0.412370 -0.298844 153 0 76
-0.041532 -0.436482 -0.324553 76 153 0
0.452747 0.416844 0.292467 0 127 127
-0.441790 0.318593 0.330992 0 127 127
-0.768250 0.049610 0.292428 0 127 127
0.656346 0.292954 -0.323849 153 0 76
-0.808473 -0.246583 0.171216 76 0 153
0.431783 0.350375 0.292428 153 0 76
-0.503943 -0.452612 -0.179549 204 51 127
-0.610144 -0.477746 -0.298844 76 153 0
0.302511 -0.426903 0.180824 204 51 127
-0.834183 -0.166711 0.190623 76 0 153
-0.834183 0.397601 -0.054156 76 0 153
0.836913 -0.232460 0.243626 153 76 0
-0.591358 0.402269 -0.324553 153 0 76
0.780543 0.395791 -0.071109 0 0 255
0.020224 0.073842 0.330992 153 0 76
-0.582416 -0.217342 0.298728 0 127 127
-0.489013 -0.141256 0.331031 0 127 127
0.560933 -0.457274 0.292467 127 0 127
-0.704691 -0.358818 -0.279562 153 0 76
0.836913 -0.300821 0.028817 153 76 0
0.317328 0.395791 0.168410 0 0 255
-0.030878 0.220696 0.253903 255 0 0
0.811204 0.193290 -0.142462 153 76 0
0.102052 0.421500 0.161186 0 0 255
0.811204 -0.476600 0.092309 153 76 0
0.523269 -0.324066 -0.324429 76 153 0
-0.195613 -0.260947 -0.279562 153 0 76
-0.005434 -0.361524 0.253903 255 0 0
0.836913 0.442580 -0.222175 153 76 0
0.307319 -0.210967 0.331031 153 0 76
-0.830599 0.336224 0.253903 127 127 0
-0.043603 -0.452612 0.055712 204 51 127
0.700474 -0.023298 0.330992 153 0 76
0.108496 0.395791 -0.107497 0 0 255
0.836913 0.407609 -0.299859 153 76 0
-0.113436 -0.133346 0.292428 0 127 127
0.730431 -0.426903 0.217486 204 51 127
-0.814806 -0.158543 0.253903 127 127 0
-0.061873 -0.114393 0.292467 0 127 127
0.726856 -0.049609 -0.279562 153 0 76
0.506387 -0.459443 0.292467 127 0 127
0.804308 -0.426903 -0.136612 204 51 127
-0.591627 -0.426903 -0.084630 204 51 127
0.611974 -0.451361 -0.298844 76 153 0
0.336727 -0.452612 0.150349 204 51 127
0.811204 -0.092145 0.116959 153 76 0
-0.742504 -0.296012 0.292428 0 127 127
0.549837 0.426121 0.292467 0 127 127
-0.506353 -0.452612 -0.105494 204 51 127
0.385068 0.210908 0.331031 153 0 76
-0.332067 -0.379541 0.292428 0 127 127
0.836913 0.280966 0.088575 153 76 0
0.415404 0.147497 0.331031 153 0 76
-0.583413 -0.452612 -0.237311 204 51 127
0.159297 0.370081 0.268081 0 127 127
0.257331 -0.101424 0.331031 153 0 76
0.150592 -0.452612 -0.047568 204 51 127
0.366666 -0.426903 0.069967 204 51 127
0.177747 -0.426903 0.022896 204 51 127
-0.808473 0.325391 0.102006 76 0 153
0.588391 -0.426903 -0.254120 204 51 127
0.686398 -0.202559 -0.279562 153 0 76
-0.101701 -0.038199 0.330992 0 127 127
-0.059779 0.410279 0.292467 0 127 127
-0.475750 -0.426903 0.183115 204 51 127
-0.000439 0.395791 -0.013177 0 0 255
0.480468 0.192221 0.331031 153 0 76
0.211160 -0.132916 -0.298844 153 0 76
0.279506 -0.153566 0.298728 153 0 76
0.526664 -0.452612 -0.113356 204 51 127
-0.628106 0.009974 -0.298844 153 0 76
-0.238114 0.154908 -0.298844 153 0 76
0.166640 0.281030 -0.279562 153 0 76
-0.229562 -0.399415 -0.324553 76 153 0
-0.834183 -0.311375 0.189341 76 0 153
0.527740 0.134174 -0.279562 153 0 76
-0.808473 -0.014929 -0.094897 76 0 153
0.758262 -0.028500 0.292428 153 0 76
-0.750427 -0.441247 0.253903 127 0 127
0.752708 -0.366504 -0.298844 76 153 0
-0.348819 -0.248057 -0.298844 153 0 76
0.711262 0.395791 0.231996 0 0 255
-0.175300 0.418425 0.292467 0 127 127
-0.636581 -0.069912 -0.298844 153 0 76
0.836913 -0.420575 0.052298 153 76 0
0.034867 0.033099 0.253903 255 0 0
-0.341349 -0.438460 -0.324553 76 153 0
0.285910 0.296187 0.330992 153 0 76
-0.180662 0.421500 -0.175656 0 0 255
-0.794438 -0.426903 0.011989 204 51 127
-0.808473 0.234655 -0.247302 76 0 153
-0.834183 0.001555 -0.183594 76 0 153
-0.633778 0.421500 0.168677 0 0 255
-0.184135 -0.426903 0.193778 204 51 127
-0.225221 -0.374980 0.292428 0 127 127
0.181831 0.133190 -0.298844 153 0 76
-0.129480 -0.001042 -0.279562 153 0 76
-0.399188 -0.362405 -0.324553 76 153 0
0.217994 -0.426903 0.108516 204 51 127
-0.379585 0.421500 -0.017545 0 0 255
0.366750 0.395791 0.191573 0 0 255
-0.030052 0.273036 0.253903 255 0 0
-0.775364 -0.452612 -0.287061 204 51 127
-0.536390 -0.454399 0.253903 127 0 127
-0.673358 0.324874 -0.324553 153 0 76
0.097960 0.195035 0.292428 153 0 76
-0.790320 -0.452612 -0.228817 204 51 127
0.836913 0.057399 -0.060645 153 76 0
-0.367800 -0.452612 0.183264 204 51 127
0.632103 0.425199 -0.298844 153 0 76
-0.467707 0.395791 -0.236566 0 0 255
-0.095418 0.421500 -0.190315 0 0 255
-0.222410 0.285805 -0.279562 153 0 76
-0.228549 0.349390 0.292428 0 127 127
0.836913 -0.363855 -0.156625 153 76 0
-0.547425 0.300419 -0.279562 153 0 76
0.447837 0.166924 -0.298844 153 0 76
0.018657 -0.426903 -0.104382 204 51 127
0.686272 0.395790 0.304891 153 0 76
0.554864 -0.452612 0.086514 204 51 127
-0.088970 0.382599 -0.279562 153 0 76
-0.340045 -0.426903 -0.150107 204 51 127
-0.533090 -0.313681 0.292831 0 127 127
-0.826186 -0.217044 0.292467 127 127 0
-0.325732 0.395791 0.041846 0 0 255
-0.096499 0.243707 -0.279562 153 0 76
-0.137788 -0.452612 -0.282088 204 51 127
-0.178273 -0.236629 0.298728 0 127 127
-0.810953 0.385642 0.292467 127 127 0
-0.745561 -0.361250 -0.324553 76 153 0
0.254435 0.144454 0.298728 153 0 76
-0.438804 0.005521 -0.279562 153 0 76
-0.668215 0.124491 0.298728 0 127 127
0.065307 -0.436505 0.253903 127 0 127
0.237725 0.302092 0.330992 153 0 76
0.551193 0.395791 0.212309 0 0 255
-0.543190 0.303786 0.330992 0 127 127
-0.436569 -0.426903 0.153970 204 51 127
-0.312613 -0.426903 0.045231 204 51 127
-0.198243 -0.426903 -0.093364 204 51 127
0.836913 -0.426015 -0.209009 153 76 0
0.614149 -0.127196 0.298728 153 0 76
-0.317778 -0.324066 -0.321588 76 153 0
-0.622727 -0.452612 0.095491 204 51 127
0.020828 0.201267 0.253903 255 0 0
-0.808473 -0.410695 -0.143321 76 0 153
0.041489 -0.452612 -0.280621 204 51 127
0.112659 -0.136576 -0.279562 153 0 76
0.098165 -0.452612 -0.083390 204 51 127
-0.808473 -0.329899 -0.237906 76 0 153
-0.808473 0.408768 0.104956 76 0 153
0.026678 0.147582 -0.279562 153 0 76
-0.748066 0.230717 0.330992 0 127 127
-0.090515 0.421500 -0.110605 0 0 255
-0.650608 -0.137905 -0.279562 153 0 76
-0.134112 -0.426903 -0.063871 204 51 127
-0.098606 -0.392100 0.292428 127 0 127
-0.227010 0.224915 -0.298844 153 0 76
0.541288 -0.365775 0.330992 153 0 76
0.673584 0.075589 -0.279562 153 0 76
0.363610 -0.037485 -0.298844 153 0 76
-0.010839 0.235680 -0.298844 153 0 76
-0.808473 -0.369024 0.044560 76 0 153
-0.572471 0.326448 0.292428 0 127 127
-0.684537 0.418896 -0.298844 0 0 255
0.496644 -0.006836 -0.298844 153 0 76
-0.588606 0.388350 0.324469 0 127 127
0.008691 -0.045744 0.292467 255 0 0
0.811204 0.239070 -0.080123 153 76 0
-0.591848 -0.249155 0.327896 0 127 127
0.284145 0.341245 -0.324553 153 0 76
0.777889 -0.068278 0.292428 153 0 76
-0.834183 0.403574 -0.169040 76 0 153
0.811204 0.327932 -0.095822 153 76 0
-0.363479 0.408798 -0.298844 153 0 76
0.426601 0.261617 0.298727 153 0 76
0.811204 0.027190 -0.265891 153 76 0
0.249000 0.421500 -0.161127 0 0 255
0.836913 0.203869 0.031378 153 76 0
-0.239215 0.354322 -0.279562 153 0 76
0.226394 -0.325323 0.330992 153 0 76
-0.785369 0.379824 -0.324553 153 0 76
0.505530 -0.365507 0.292428 153 0 76
0.474942 -0.150932 0.331031 153 0 76
-0.242154 -0.452612 -0.176556 204 51 127
0.059708 -0.305195 0.292428 153 0 76
-0.683680 0.060158 -0.279562 153 0 76
0.367372 -0.353827 0.387110 76 0 153
-0.071419 -0.029283 -0.279562 153 0 76
-0.645093 0.162257 -0.279562 153 0 76
0.107127 -0.033815 0.329400 153 0 76
0.803557 0.421500 0.022511 0 0 255
0.209602 0.045062 0.298728 153 0 76
0.836913 -0.129374 -0.128729 153 76 0
0.231566 0.187364 0.331031 153 0 76
-0.246353 0.421500 0.205013 0 0 255
0.474430 -0.090580 0.298728 153 0 76
0.408579 0.395791 0.024979 0 0 255
-0.445873 -0.452612 0.060505 204 51 127
0.746146 -0.426903 -0.191222 204 51 127
0.696213 -0.151967 0.330992 153 0 76
-0.324013 0.163883 0.331031 0 127 127
-0.377471 -0.328314 0.330992 0 127 127
-0.001199 -0.409157 0.313952 153 0 76
0.836913 0.395081 -0.236962 153 76 0
0.043330 -0.162931 0.292467 153 0 76
0.451546 -0.452612 -0.139495 204 51 127
0.713412 -0.452612 -0.129601 204 51 127
-0.456380 -0.165000 0.298728 0 127 127
-0.075762 -0.297785 0.268148 255 0 0
-0.598171 0.421500 0.111805 0 0 255
-0.077194 0.096752 0.292428 255 0 0
-0.771287 -0.339701 0.330992 0 127 127
0.836913 0.288641 -0.015922 153 76 0
-0.510888 0.003465 0.331031 0 127 127
-0.247364 0.254587 0.311582 0 127 127
0.825718 0.273389 0.292467 0 255 0
0.110710 0.313117 0.292428 153 0 76
-0.540463 0.035457 -0.298844 153 76 0
0.470401 -0.452612 -0.244312 204 51 127
0.625279 0.421500 -0.102654 0 0 255
0.694183 0.074273 0.292428 153 0 76
-0.283593 -0.154620 0.298728 0 127 127
-0.804760 0.187075 0.292467 127 127 0
0.811204 -0.120672 0.252939 0 255 0
-0.343079 -0.148607 0.298728 0 127 127
-0.594399 0.303202 -0.324553 153 0 76
0.623026 -0.363685 0.339485 76 0 153
-0.482074 -0.337614 0.330992 0 127 127
0.404730 0.078089 -0.298844 153 0 76
0.238973 0.421500 -0.269490 0 0 255
-0.113810 0.395791 0.031712 0 0 255
-0.600071 -0.405697 -0.298844 76 153 0
0.663362 -0.452612 -0.182040 204 51 127
0.158018 0.061421 -0.298844 153 0 76
-0.511261 -0.452612 -0.271924 76 153 0
-0.367927 0.336729 0.330992 0 127 127
0.437465 -0.426903 0.121816 204 51 127
0.735905 -0.172000 -0.298844 153 0 76
-0.139418 -0.420003 -0.324553 76 153 0
0.811204 -0.045596 -0.097740 153 76 0
-0.050183 0.354912 0.330992 0 127 127
0.417711 -0.094579 0.298728 153 0 76
-0.808473 -0.057183 -0.026399 76 0 153
0.513665 0.395791 0.164120 0 0 255
0.080832 -0.204927 -0.279562 153 0 76
-0.788524 0.261224 0.292467 0 127 127
-0.045350 0.395791 0.019116 0 0 255
-0.808473 0.086334 -0.017182 76 0 153
0.836913 -0.351299 -0.214777 153 76 0
-0.619636 -0.289588 -0.279562 153 0 76
0.811204 0.129564 -0.184804 153 76 0
0.032508 0.387959 -0.324553 153 0 76
0.722127 -0.332920 0.330992 153 0 76
0.836913 -0.086539 -0.163140 153 76 0
-0.378061 0.447209 0.255122 0 127 127
0.278311 0.103882 0.298728 153 0 76
-0.834183 -0.232171 0.041018 76 0 153
-0.220161 -0.062984 -0.298844 153 0 76
-0.808473 -0.217616 -0.272840 76 0 153
-0.809152 0.223442 -0.324553 76 0 153
-0.564330 -0.066366 -0.298844 153 0 76
0.818774 0.376502 0.292467 0 255 0
