ply
format ascii 1.0
element vertex 1262
property float x
property float y
property float z
property uchar red
property uchar green
property uchar blue
end_header
-0.095282 -0.619304 -0.414528 76 0 153
-0.503061 0.424001 0.270522 153 0 76
0.123979 0.143977 -0.464158 0 255 0
-0.376147 0.411346 -0.397207 0 127 127
0.278127 0.683179 0.507853 0 0 255
-0.067921 -0.283413 -0.113932 204 51 127
0.124657 -0.619304 0.261681 76 0 153
0.127339 -0.009176 0.561246 204 51 127
0.553458 -0.522769 0.446110 153 0 76
-0.067827 0.368416 0.526779 255 0 0
-0.407625 -0.706330 -0.005090 204 51 127
0.253537 -0.617796 -0.464158 153 0 76
-0.469051 -0.073502 -0.294519 153 76 0
0.473036 0.484792 -0.084244 127 127 0
0.306774 0.124085 -0.464158 0 255 0
0.032209 -0.706330 0.277325 204 51 127
-0.050297 -0.619304 0.243805 76 0 153
-0.549473 0.135267 0.480092 76 0 153
-0.171080 -0.283413 0.164654 204 51 127
0.047949 0.063967 -0.373587 127 127 0
0.270641 0.683179 0.309803 0 0 255
-0.307270 -0.706330 -0.001583 204 51 127
0.273905 -0.706330 -0.347119 204 51 127
0.443488 -0.263171 -0.487113 153 0 76
-0.469051 -0.155044 -0.401118 153 76 0
0.482147 -0.412505 0.425022 0 127 127
-0.377769 0.058178 0.561246 204 51 127
-0.544579 0.683180 0.069391 76 0 153
-0.438563 0.038879 -0.498602 153 0 76
-0.079850 -0.283413 0.448103 204 51 127
-0.515006 -0.097299 0.458756 76 0 153
-0.290241 -0.630793 0.395800 76 0 153
0.222781 0.480859 -0.441180 127 0 127
0.291856 0.637223 0.350227 0 0 255
0.299872 -0.660375 -0.476608 153 0 76
-0.515006 0.462940 0.191503 0 255 0
-0.523959 -0.039933 0.561246 76 0 153
-0.515006 0.246345 -0.493467 76 0 153
-0.469051 -0.165520 0.168669 153 76 0
-0.309257 -0.332082 0.561246 76 0 153
-0.515006 -0.463472 -0.426092 76 0 153
0.435838 0.308277 0.561246 204 51 127
0.536528 -0.417404 0.561246 127 0 127
0.176941 -0.271924 -0.001882 204 51 127
-0.515006 -0.393712 -0.518214 153 0 76
-0.458374 -0.294902 -0.458202 153 0 76
-0.515006 -0.331765 -0.284574 76 0 153
0.510374 -0.589382 -0.439275 0 127 127
-0.549473 0.163652 0.211263 76 0 153
-0.130257 0.130736 0.526779 204 51 127
-0.272549 -0.706330 0.021257 204 51 127
0.378728 0.411346 -0.049703 0 127 127
-0.515006 0.083167 -0.311479 76 0 153
-0.549473 -0.182824 0.437765 76 0 153
-0.549473 0.140952 0.325288 76 0 153
-0.051588 -0.435349 0.561246 127 0 127
-0.515006 0.434529 -0.110089 153 0 76
0.422706 -0.706330 -0.015060 204 51 127
-0.130943 0.075455 0.471531 127 127 0
-0.506390 0.463805 -0.424006 0 255 0
-0.145963 -0.271924 0.366274 204 51 127
0.167211 0.075455 -0.240445 127 127 0
-0.213993 0.092650 -0.464158 0 255 0
0.084191 -0.706330 -0.089096 204 51 127
-0.256755 0.411346 -0.059349 0 127 127
0.256369 0.416414 0.526779 255 0 0
0.057854 0.411346 0.402886 0 127 127
-0.320382 0.255848 -0.464158 0 255 0
0.496013 -0.116087 -0.052603 76 0 153
0.494243 0.007149 0.526779 204 51 127
0.496876 -0.643464 0.561246 127 0 127
-0.147666 0.429288 0.561246 255 0 0
0.143645 -0.245862 -0.441180 153 0 76
-0.298328 0.422835 -0.117939 0 127 127
-0.141356 0.683179 0.097884 0 0 255
0.518991 0.157463 -0.486104 153 0 76
-0.549473 -0.676585 0.416544 76 0 153
0.398088 -0.271924 0.145508 204 51 127
-0.271530 0.330065 0.533504 204 51 127
-0.469051 -0.577923 0.415660 127 127 0
0.074038 -0.256119 -0.464158 153 0 76
0.145408 -0.706330 0.464392 204 51 127
0.476664 0.052478 0.316182 255 0 0
-0.211984 0.507947 -0.464158 127 0 127
-0.087602 -0.706330 0.019156 204 51 127
-0.469051 0.115498 0.386675 0 0 255
0.496013 0.444174 -0.225364 127 127 0
-0.130818 -0.498975 -0.533069 127 127 0
0.473036 0.198697 -0.028026 255 0 0
0.091269 0.215735 -0.441180 0 255 0
0.409806 -0.483213 0.526779 127 0 127
-0.443664 -0.660375 0.229054 204 51 127
0.452965 0.411346 0.185370 127 127 0
-0.499178 0.130345 -0.059989 76 0 153
0.518991 -0.070932 0.373488 153 0 76
-0.356559 0.637223 0.404379 0 0 255
0.225291 0.411346 -0.398070 0 127 127
-0.396654 -0.452237 0.526779 127 0 127
-0.549473 -0.241103 0.193402 76 0 153
0.432644 0.466651 -0.498602 153 0 76
-0.117210 0.422835 -0.179858 0 127 127
-0.515006 0.466436 0.230866 76 0 153
-0.421303 -0.706330 -0.107215 204 51 127
0.224563 0.625136 -0.498602 153 0 76
-0.140890 0.526275 -0.533069 127 0 127
0.338275 -0.144685 0.526779 76 0 153
0.553458 0.320596 -0.167011 153 0 76
-0.319468 0.625577 -0.498602 153 0 76
0.005687 -0.271283 0.523884 76 0 153
-0.469051 -0.200928 0.376721 153 76 0
-0.479334 -0.602920 0.523884 127 0 127
0.473036 -0.136398 -0.187982 76 0 153
0.320837 0.535693 -0.498602 127 0 127
0.410316 0.552530 -0.441180 127 0 127
-0.469051 0.567529 0.166258 0 255 0
0.172897 -0.294902 0.520576 76 0 153
0.137739 -0.198325 0.561246 76 0 153
-0.323839 -0.245480 0.526779 76 0 153
-0.515006 0.499947 -0.079242 76 0 153
0.319925 0.063967 -0.248735 127 127 0
0.104329 0.523582 0.523884 255 0 0
0.433522 0.683179 -0.330622 0 0 255
-0.339311 0.325851 0.526779 204 51 127
-0.515006 0.066298 0.375670 76 0 153
0.363857 -0.555108 -0.533069 127 127 0
-0.318180 0.063967 -0.129372 127 127 0
0.473036 0.055349 0.151858 255 0 0
-0.492029 -0.513067 -0.397346 76 153 0
-0.242505 -0.441898 -0.498602 153 0 76
0.518991 0.375587 -0.085799 153 0 76
0.006527 0.435739 0.561246 255 0 0
-0.515006 0.357074 -0.109423 76 0 153
0.473036 -0.494335 -0.010427 0 127 127
-0.081162 0.397873 0.561246 255 0 0
0.048716 -0.283413 -0.034103 204 51 127
-0.229231 -0.354805 0.526779 127 0 127
-0.515006 0.594929 -0.025769 76 0 153
0.477328 -0.412505 0.290103 0 127 127
0.553458 0.644987 -0.252761 153 0 76
0.157293 0.364650 0.561246 255 0 0
-0.549473 -0.460047 0.513516 76 0 153
-0.549473 -0.140452 -0.255514 76 0 153
0.372861 0.637223 -0.361992 0 0 255
-0.469206 0.183011 -0.498602 153 0 76
0.108961 -0.279764 0.526779 76 0 153
0.331547 0.610034 -0.533069 127 0 127
-0.515006 -0.326903 -0.524473 76 0 153
-0.469051 0.242537 -0.403325 0 0 255
0.496013 0.153794 -0.311245 255 0 0
-0.283156 -0.283413 0.490032 76 0 153
0.024450 -0.706330 -0.197331 204 51 127
0.275795 -0.271924 -0.285304 204 51 127
-0.515006 0.307575 -0.300107 76 0 153
-0.237693 0.063967 -0.195448 127 127 0
-0.515006 -0.144713 0.364443 76 0 153
-0.365466 -0.630793 -0.171733 76 0 153
-0.482991 -0.660375 -0.311938 204 51 127
-0.549473 0.597945 -0.437019 76 0 153
-0.362145 -0.291881 0.526779 76 0 153
-0.419984 0.439573 -0.464158 127 0 127
-0.326760 0.637223 -0.343899 0 0 255
0.553458 0.177714 -0.519046 153 0 76
-0.315555 0.548641 -0.498602 153 0 76
0.106002 0.075455 0.148582 127 127 0
0.416522 0.498961 0.500906 255 0 0
0.473036 -0.263999 0.050739 76 0 153
0.518991 -0.628737 -0.359432 153 0 76
0.496013 -0.517105 0.124704 153 0 76
0.195586 0.422835 -0.326478 0 127 127
-0.467525 -0.512211 -0.498602 127 127 0
0.400834 0.637223 0.451734 0 0 255
-0.020677 0.671736 0.561246 255 0 0
-0.549473 0.040522 -0.328357 76 0 153
0.325510 -0.283413 0.231682 204 51 127
0.211768 -0.650507 0.561246 127 0 127
0.447504 0.422835 -0.087207 127 127 0
0.467985 0.543485 -0.533069 127 0 127
-0.549473 -0.700607 0.089735 76 0 153
-0.549473 -0.042489 -0.168123 76 0 153
0.518991 0.033133 0.282187 153 0 76
0.009874 0.020664 0.561246 204 51 127
0.553458 0.382941 0.384025 153 0 76
-0.492822 -0.409676 0.561246 127 0 127
0.298669 -0.660375 0.367433 204 51 127
-0.285012 0.422835 0.299202 0 127 127
-0.549473 0.572049 0.093754 76 0 153
-0.220898 -0.631305 0.500906 76 0 153
0.430102 0.637223 -0.242427 0 0 255
0.421670 -0.271924 0.230843 204 51 127
-0.515006 -0.019627 -0.014473 76 0 153
-0.013478 -0.449029 0.561246 127 0 127
-0.461996 0.422835 -0.150042 0 255 0
-0.549473 -0.176005 -0.400898 76 0 153
0.427042 -0.619304 0.118107 76 0 153
0.354594 -0.457807 -0.533069 127 127 0
-0.492029 -0.185163 -0.226917 153 76 0
0.133836 -0.271924 -0.357201 204 51 127
0.487336 0.243329 0.561246 204 51 127
0.496013 -0.082193 0.130127 153 0 76
-0.209929 -0.660375 -0.329152 76 0 153
0.475800 -0.660375 -0.206252 204 51 127
0.164154 -0.619304 0.252621 76 0 153
-0.440042 -0.283413 0.255351 204 51 127
0.518991 0.653870 0.264486 0 0 255
0.078463 0.457927 0.526779 255 0 0
-0.202803 0.061513 0.561246 204 51 127
-0.178715 0.466917 0.561246 255 0 0
-0.515006 0.402121 0.238260 153 0 76
0.035591 0.683179 0.010833 0 0 255
0.553458 0.580478 -0.319696 153 0 76
0.518991 -0.442897 0.091182 153 0 76
-0.245363 0.674681 -0.533069 0 0 255
-0.293857 0.406407 -0.498602 153 0 76
-0.149109 -0.198233 0.561246 76 0 153
0.479004 0.100807 -0.498602 153 0 76
-0.369511 0.075455 0.053968 127 127 0
-0.105898 0.273742 0.561246 204 51 127
0.101650 -0.706330 -0.246491 204 51 127
0.119163 -0.585343 -0.487113 153 0 76
0.177060 0.411346 0.217123 0 127 127
-0.263455 0.590881 0.500906 255 0 0
-0.311114 -0.619304 -0.337615 76 0 153
-0.492029 -0.076953 0.416780 153 76 0
0.518991 0.573453 -0.496739 153 0 76
-0.355958 0.568897 -0.498602 153 0 76
-0.195584 0.462878 -0.498602 127 0 127
-0.179867 0.075455 -0.021978 127 127 0
0.518991 0.680315 -0.168181 153 0 76
-0.549473 -0.307213 -0.134261 76 0 153
0.553458 -0.244306 -0.531621 153 0 76
-0.549473 -0.382456 0.458223 76 0 153
-0.549473 0.600726 0.281511 76 0 153
0.518991 -0.027365 -0.347040 153 0 76
0.144949 0.683179 -0.033735 0 0 255
-0.003760 -0.630793 0.117557 76 0 153
-0.420809 0.683179 0.432032 0 0 255
-0.279537 -0.706330 0.265774 204 51 127
0.256419 -0.660375 -0.044708 204 51 127
0.553458 0.299480 -0.404253 153 0 76
0.553458 0.096091 -0.113821 153 0 76
0.312641 0.462354 -0.487113 153 0 76
0.424819 -0.265558 0.523884 76 0 153
0.473036 -0.141733 0.357869 76 0 153
0.424224 -0.481961 -0.498602 153 0 76
-0.515006 0.277656 0.491501 76 0 153
-0.148402 0.063967 -0.413740 127 127 0
0.494534 -0.543444 -0.441180 153 0 76
-0.326039 0.407446 -0.522765 127 0 127
-0.476229 0.369161 0.526779 255 0 0
0.113359 -0.513258 -0.533069 127 127 0
0.517823 -0.706330 0.332553 204 51 127
0.311661 -0.053338 0.526779 76 0 153
-0.549473 -0.403011 -0.252025 76 0 153
-0.515006 -0.667109 -0.427617 76 0 153
-0.217093 0.683179 -0.450670 0 0 255
-0.515006 0.521794 -0.406225 76 0 153
0.118518 0.251007 -0.487113 153 0 76
0.049367 -0.442265 -0.464158 153 0 76
0.553458 -0.613650 -0.383609 153 0 76
0.256922 0.467141 -0.533069 127 0 127
-0.353635 -0.619304 -0.086039 76 0 153
0.260241 -0.630793 0.141644 76 0 153
0.553458 0.279250 0.130680 153 0 76
0.553458 0.019513 0.485589 153 0 76
0.358191 -0.706330 0.072457 204 51 127
-0.288434 -0.592775 -0.464158 153 0 76
0.090677 0.282255 -0.458870 0 255 0
-0.026601 -0.502226 -0.533069 127 127 0
-0.388301 -0.509843 0.500906 127 0 127
-0.317420 -0.660375 -0.373959 204 51 127
0.157914 -0.023188 0.526779 204 51 127
0.553458 -0.403064 0.270302 153 0 76
0.496013 -0.147959 -0.118374 76 0 153
-0.549473 -0.146214 -0.505052 76 0 153
-0.102887 0.637223 0.083242 0 0 255
0.064385 -0.706330 -0.326499 204 51 127
0.093492 0.637223 -0.203349 0 0 255
0.247630 0.517189 -0.498602 153 0 76
0.489921 -0.706330 -0.263540 153 0 76
0.376385 0.637223 -0.120152 0 0 255
-0.188526 0.249162 -0.498602 153 0 76
-0.515006 0.306810 0.136876 76 0 153
0.228796 0.637223 -0.240086 0 0 255
-0.305855 -0.283413 0.002489 204 51 127
0.129693 0.202946 0.561246 204 51 127
0.304407 -0.705630 0.561246 127 0 127
0.518991 -0.627151 -0.009555 0 255 0
-0.549473 -0.550827 0.039917 76 0 153
-0.030002 -0.271924 0.329903 204 51 127
0.517723 0.449256 -0.498602 127 0 127
-0.426155 -0.055188 0.526779 76 0 153
-0.420392 0.637223 0.482004 0 0 255
0.518991 0.289778 -0.180752 153 0 76
0.140756 -0.087697 -0.464158 153 0 76
0.553458 -0.329148 0.308652 153 0 76
-0.465651 -0.706330 0.002546 204 51 127
0.264829 -0.155746 0.526779 76 0 153
-0.492029 -0.169575 0.285472 153 76 0
0.001030 0.500561 -0.498602 127 0 127
0.518991 0.038116 -0.493768 153 0 76
-0.492029 0.247099 -0.270012 76 0 153
-0.185477 -0.091234 -0.464158 153 0 76
0.290766 0.306379 0.561246 204 51 127
0.384148 -0.184955 0.526779 76 0 153
0.496013 -0.109348 -0.163105 153 0 76
0.465050 0.365613 0.526779 255 0 0
-0.025932 -0.283413 0.412938 204 51 127
-0.263192 -0.271924 0.457629 204 51 127
-0.108997 -0.182130 -0.487113 153 0 76
0.553458 -0.258661 -0.266565 153 0 76
0.518991 0.430979 -0.051750 76 153 0
0.103862 0.448374 -0.441180 127 0 127
0.255725 -0.451026 -0.498602 153 0 76
-0.469051 0.483724 0.145581 0 255 0
-0.451400 -0.660375 0.269985 204 51 127
0.402346 -0.182080 -0.464158 153 0 76
0.496013 -0.599247 0.126920 0 127 127
0.291743 -0.706330 0.477016 204 51 127
-0.469051 0.582751 0.022240 0 255 0
-0.549473 -0.083925 -0.264309 76 0 153
0.473036 0.447107 -0.372658 127 127 0
0.550586 0.598205 0.526893 153 0 76
-0.546601 -0.525381 0.554531 127 0 127
0.553458 -0.290873 0.317243 153 0 76
-0.136161 -0.530424 -0.464158 153 0 76
-0.041906 0.516140 -0.464158 127 0 127
-0.457060 -0.706330 -0.127964 204 51 127
-0.236089 -0.706330 0.149739 204 51 127
0.496013 0.559003 0.187610 153 0 76
-0.549473 0.008389 -0.096464 76 0 153
0.518991 -0.105441 0.278439 76 0 153
-0.515006 0.666759 0.001209 0 0 255
0.257338 0.422835 0.230473 0 127 127
0.114748 -0.180849 0.500906 76 0 153
-0.114288 0.683179 -0.503976 0 0 255
0.473036 0.269318 -0.204176 255 0 0
-0.130258 0.422835 -0.115996 0 127 127
-0.460799 0.433562 -0.487113 153 0 76
0.284295 -0.283413 0.465090 204 51 127
-0.086995 -0.426979 -0.464158 153 0 76
0.518991 -0.193131 0.406597 153 0 76
-0.309530 0.637223 0.073989 0 0 255
0.399710 -0.037947 0.561246 76 0 153
-0.375341 0.585021 0.611778 76 0 153
-0.296089 0.075455 0.301643 127 127 0
0.229142 -0.271924 0.452673 204 51 127
0.518991 0.216215 -0.482706 153 0 76
0.091479 -0.660375 0.218836 204 51 127
-0.506071 -0.217035 0.130011 153 0 76
0.496013 0.163567 -0.050702 255 0 0
0.496013 -0.110150 -0.439910 76 0 153
0.234839 -0.271924 0.387257 204 51 127
0.228299 -0.161982 -0.464158 153 0 76
0.518991 -0.320634 -0.031931 153 0 76
0.473036 -0.459619 -0.351673 0 127 127
0.061295 -0.080669 0.500906 76 0 153
0.553458 0.665200 -0.308481 153 0 76
-0.382193 -0.706330 0.249087 204 51 127
-0.035252 0.457338 -0.533069 127 0 127
-0.021712 0.112994 -0.441180 0 255 0
-0.502626 -0.564415 -0.319753 127 127 0
0.482705 -0.706330 -0.495675 204 51 127
-0.460954 0.476139 0.561246 255 0 0
0.481844 0.399858 0.418216 0 127 127
0.518991 0.353772 -0.499291 153 0 76
0.260970 0.683179 0.213001 0 0 255
0.473036 0.095508 -0.355712 255 0 0
0.553458 0.077630 -0.058236 153 0 76
0.260152 -0.098949 0.523884 76 0 153
0.291307 -0.283413 -0.083985 204 51 127
-0.549473 -0.494107 0.170069 76 0 153
-0.462369 0.278584 0.561246 204 51 127
-0.490679 0.637223 0.188478 0 0 255
0.003092 -0.096114 0.500906 76 0 153
0.518991 -0.511654 -0.526018 127 127 0
0.078435 -0.467668 -0.533069 127 127 0
0.408617 -0.438822 0.526779 127 0 127
0.315896 0.683179 0.072504 0 0 255
0.126294 0.411346 0.500087 255 0 0
-0.061260 0.063967 0.135971 127 127 0
-0.268080 -0.700259 -0.533069 204 51 127
0.539475 -0.706330 -0.448038 153 0 76
0.039889 0.051868 0.526779 204 51 127
-0.404041 -0.660375 -0.341062 204 51 127
-0.241868 0.637223 0.030253 0 0 255
0.002817 0.081840 0.523884 204 51 127
0.055898 0.050945 -0.487113 153 0 76
-0.486640 0.440783 0.523884 255 0 0
0.518991 -0.029878 0.448950 153 0 76
0.373588 -0.086406 0.523884 76 0 153
0.303916 -0.563509 -0.441180 153 0 76
-0.492029 -0.527157 -0.452958 153 0 76
-0.142580 0.407446 -0.509628 127 0 127
-0.255332 0.637223 -0.383820 0 0 255
0.496013 0.539378 -0.142761 127 127 0
0.039529 -0.224034 0.523884 76 0 153
-0.087734 -0.283413 0.272225 204 51 127
-0.391120 0.637223 -0.011381 0 0 255
-0.515006 0.284305 -0.384181 76 0 153
-0.079269 0.422835 0.324387 0 127 127
0.134930 -0.660375 0.041494 204 51 127
0.481586 0.637223 -0.489093 127 0 127
0.094005 -0.568634 0.500906 127 0 127
-0.293108 0.075455 -0.342663 127 127 0
-0.178117 -0.619119 0.561246 127 0 127
0.344769 0.214166 0.526779 204 51 127
0.406613 0.637223 0.258553 0 0 255
0.395360 -0.619304 -0.007880 76 0 153
-0.362157 -0.283413 0.007022 204 51 127
0.193213 -0.542890 0.500906 127 0 127
-0.415932 0.090452 0.523884 204 51 127
0.250791 -0.120125 -0.464158 153 0 76
0.518991 -0.277223 -0.018403 76 153 0
0.518991 0.124006 -0.297350 153 0 76
0.522165 0.343135 0.561246 255 0 0
-0.440727 -0.660375 0.182217 204 51 127
-0.492029 0.159876 0.223207 0 0 255
-0.355493 0.188177 -0.464158 0 255 0
-0.165201 -0.660375 -0.037204 204 51 127
0.518991 0.047445 0.356138 153 0 76
0.293321 0.683179 0.394140 0 0 255
-0.495976 -0.667334 0.561246 127 0 127
-0.148155 0.637223 0.159667 0 0 255
-0.014390 -0.162102 0.561246 76 0 153
-0.260596 0.422835 -0.433129 0 127 127
0.426497 0.237563 -0.498602 153 0 76
-0.549473 0.231221 -0.284953 76 0 153
0.048879 0.523507 0.561246 255 0 0
0.518991 -0.386642 -0.229927 153 0 76
0.075365 0.422835 -0.299378 0 127 127
-0.138823 0.637223 -0.180126 0 0 255
0.553458 0.184278 -0.411094 153 0 76
-0.515006 -0.086577 0.009492 76 0 153
-0.178178 -0.271924 0.436991 204 51 127
-0.380980 -0.123874 0.561246 76 0 153
0.111088 0.104331 -0.487113 153 0 76
-0.400293 -0.619304 -0.342893 76 0 153
0.008219 -0.630793 0.199143 76 0 153
-0.218497 -0.706330 0.440133 204 51 127
0.518991 0.430979 -0.277926 153 0 76
-0.469051 0.090320 -0.043273 0 0 255
0.553458 0.628016 -0.162822 153 0 76
0.224393 -0.660375 -0.109174 204 51 127
0.518991 0.054332 -0.061294 255 0 0
0.422415 -0.459368 -0.441180 153 0 76
0.388619 0.243387 -0.441180 0 255 0
-0.384102 -0.295277 -0.498602 153 0 76
0.264831 0.411346 0.058995 0 127 127
-0.262832 -0.216891 0.526779 76 0 153
0.450754 0.411346 -0.031875 0 127 127
-0.469051 0.469315 -0.187737 0 255 0
0.395705 0.063967 0.469509 127 127 0
0.177009 -0.660375 -0.063155 204 51 127
-0.492029 0.191720 -0.176564 76 0 153
0.178957 0.407446 -0.524821 153 0 76
-0.087453 0.683179 -0.160796 0 0 255
-0.469051 0.544151 0.384848 0 255 0
-0.515006 -0.162630 -0.077223 153 76 0
0.553458 0.486330 0.271162 153 0 76
-0.549473 -0.231223 -0.162719 76 0 153
0.298570 -0.481613 0.561246 127 0 127
-0.437580 -0.660375 -0.412811 204 51 127
0.312012 0.574962 -0.533069 127 0 127
0.442554 -0.706330 -0.323649 204 51 127
-0.549473 0.476059 -0.402317 76 0 153
-0.261026 -0.660375 -0.229171 204 51 127
0.553458 -0.045396 0.407961 153 0 76
0.473036 0.229174 0.297421 255 0 0
-0.223812 -0.652514 -0.498602 153 0 76
-0.469051 -0.115383 0.031935 153 76 0
0.553458 -0.378161 0.453647 153 0 76
-0.217273 -0.174177 -0.441180 153 0 76
0.409274 -0.420293 -0.487113 127 127 0
-0.015759 -0.220834 0.526779 76 0 153
0.553458 0.242996 0.381948 153 0 76
-0.111850 -0.275785 0.500906 76 0 153
0.384739 -0.323598 0.526779 76 0 153
-0.521189 0.048754 0.526779 76 0 153
-0.549473 0.140610 0.252255 76 0 153
-0.422528 0.573656 -0.533069 127 0 127
-0.223712 -0.535798 -0.533069 127 127 0
0.256720 -0.143262 -0.498602 153 0 76
-0.515006 -0.298249 -0.202958 76 0 153
0.553458 0.273463 -0.087956 153 0 76
0.045017 -0.332077 0.561246 76 0 153
0.113639 0.660713 0.561246 255 0 0
0.444932 0.063967 0.382045 127 127 0
0.553458 0.257053 0.098150 153 0 76
0.518991 -0.111973 -0.277375 153 0 76
0.177869 -0.706330 0.306700 204 51 127
-0.013922 0.561324 -0.464158 153 0 76
-0.549473 0.405130 -0.238639 76 0 153
0.106163 -0.428168 0.526779 127 0 127
0.058798 0.683179 0.464150 0 0 255
0.353500 -0.706330 -0.232745 204 51 127
0.120519 0.075455 0.373862 127 127 0
0.116299 -0.619304 -0.180097 76 0 153
-0.406368 -0.706330 -0.247177 204 51 127
0.194109 -0.630793 -0.246565 76 0 153
0.022272 -0.619304 0.480398 76 0 153
-0.110309 -0.660375 0.010018 204 51 127
0.512458 -0.270759 0.353594 153 0 76
-0.092401 -0.459171 0.500906 127 0 127
-0.469051 0.091648 -0.173171 76 0 153
0.011690 -0.271924 0.378414 204 51 127
-0.515006 -0.439503 0.122029 76 0 153
-0.461565 -0.630793 -0.049533 76 0 153
-0.374665 0.422835 0.277808 0 127 127
-0.469051 0.437366 -0.028738 0 255 0
-0.445053 0.683179 0.140576 0 0 255
0.148674 0.637223 0.259669 0 0 255
0.310077 -0.452087 -0.441180 153 0 76
0.383543 -0.619304 0.270246 76 0 153
-0.019925 0.683179 -0.452949 0 0 255
0.553458 0.007293 -0.282610 153 0 76
-0.131791 -0.706330 -0.033197 204 51 127
-0.248340 0.221934 0.526779 204 51 127
-0.549473 0.180557 -0.334704 76 0 153
-0.034802 0.637223 -0.338987 0 0 255
0.518991 0.414082 -0.519484 153 0 76
0.158945 -0.636345 0.523884 127 0 127
0.518991 0.483826 -0.096130 76 153 0
-0.272230 -0.011570 0.551280 76 0 153
0.518991 -0.044367 0.213575 153 0 76
-0.291286 0.501923 -0.533069 153 0 76
-0.365598 0.637223 0.163031 0 0 255
-0.397489 0.063967 -0.334930 127 127 0
0.553458 0.501739 -0.018417 153 0 76
0.412829 -0.673183 0.526779 204 51 127
-0.281065 -0.470191 -0.464158 153 0 76
-0.549473 0.604520 0.205298 76 0 153
0.312667 -0.619304 0.169496 76 0 153
0.553458 0.552377 0.388704 153 0 76
-0.509262 -0.618023 0.474083 127 127 0
-0.321082 0.677445 0.534822 0 0 255
0.376712 0.392261 0.526779 255 0 0
-0.417041 0.637223 0.191646 0 0 255
0.127907 0.559476 -0.464158 127 0 127
-0.307835 0.270387 0.561246 204 51 127
0.220938 -0.660375 0.329907 204 51 127
0.343655 -0.596961 0.523884 127 0 127
-0.469051 -0.523185 -0.329999 76 153 0
-0.469051 0.089637 0.183163 0 0 255
0.473036 0.481911 -0.263272 127 127 0
-0.549473 -0.101804 -0.501875 76 0 153
-0.400963 0.583380 -0.498602 153 0 76
-0.492029 -0.275028 0.254021 153 0 76
-0.528087 -0.706330 0.185940 76 0 153
-0.469051 0.562962 -0.039485 0 255 0
0.553458 -0.512142 0.218172 153 0 76
0.518991 -0.050483 0.288218 153 0 76
0.553458 -0.227494 0.342600 153 0 76
-0.549473 0.106598 0.181886 76 0 153
-0.058238 0.063967 0.471962 127 127 0
-0.357844 -0.039407 -0.498602 153 0 76
-0.515006 0.677959 -0.342792 0 0 255
0.205498 -0.371730 0.526779 127 0 127
0.473036 0.556138 0.243294 127 127 0
-0.102482 -0.660375 0.511253 204 51 127
0.168345 0.646310 0.523907 0 0 255
-0.012462 0.075455 0.306899 127 127 0
-0.212811 0.411346 0.319545 0 127 127
0.553458 0.458499 -0.234735 153 0 76
-0.515006 -0.519221 -0.490166 76 0 153
0.261007 0.606247 0.500906 255 0 0
-0.328760 -0.619304 -0.381943 76 0 153
-0.515006 -0.036719 0.151067 76 0 153
0.518991 0.163348 -0.203510 255 0 0
0.038987 0.637223 -0.171152 0 0 255
-0.373645 -0.161204 0.561246 76 0 153
-0.131981 0.411346 -0.013182 0 127 127
0.089895 0.411346 0.212384 0 127 127
-0.549473 0.655336 -0.493833 76 0 153
0.194324 -0.271924 -0.333296 204 51 127
0.553458 0.595994 0.067247 153 0 76
0.455277 0.075455 0.423735 255 0 0
-0.515006 -0.258932 0.033651 76 0 153
-0.549473 -0.435605 -0.101232 76 0 153
0.002048 -0.314695 0.526779 76 0 153
-0.458799 -0.564429 -0.464158 153 0 76
-0.376139 0.422835 -0.344094 0 127 127
0.244722 0.063967 0.040726 127 127 0
0.484958 -0.294902 0.499738 76 0 153
0.104459 0.501972 -0.533069 127 0 127
-0.374250 0.417246 -0.487113 153 0 76
0.342159 0.422835 0.387834 0 127 127
-0.515006 -0.701898 0.473017 204 51 127
-0.030482 -0.481403 0.500906 127 0 127
0.553458 -0.147816 -0.060052 153 0 76
0.400284 -0.660375 0.235434 204 51 127
-0.374287 0.683179 -0.252530 0 0 255
0.458217 -0.660375 0.207346 0 127 127
0.232371 0.024622 0.561246 204 51 127
-0.532157 -0.241264 0.523907 76 0 153
-0.045495 0.637223 0.488094 0 0 255
0.003398 -0.660375 0.281276 204 51 127
-0.469051 -0.196207 -0.111206 153 76 0
-0.369835 -0.706330 -0.169967 204 51 127
-0.196556 0.371846 0.526779 255 0 0
0.124947 -0.440031 0.561246 127 0 127
0.085760 -0.546879 -0.441180 153 0 76
-0.167218 -0.619304 -0.158715 76 0 153
-0.549473 -0.502800 0.421540 76 0 153
0.473036 0.120351 0.217498 255 0 0
0.215815 0.563412 0.526779 255 0 0
-0.168957 0.637223 -0.328669 0 0 255
-0.219831 0.253952 0.609900 153 76 0
0.183514 0.075455 -0.136710 127 127 0
-0.056536 -0.000796 -0.498602 153 0 76
-0.515006 -0.016486 -0.429816 76 0 153
-0.515006 -0.132116 -0.149327 76 0 153
0.327274 -0.579947 -0.498602 153 0 76
0.116865 0.683179 -0.266998 0 0 255
-0.319099 -0.589726 0.561246 127 0 127
-0.200333 -0.660375 0.163788 204 51 127
-0.402503 0.637223 -0.445008 127 0 127
-0.549473 0.150746 -0.231191 76 0 153
0.518991 -0.549051 0.023880 153 0 76
-0.515006 -0.468463 0.274448 76 153 0
-0.515006 -0.457356 0.351509 76 0 153
0.181568 0.399858 -0.459902 127 0 127
-0.222378 0.683179 0.260109 0 0 255
-0.400711 -0.271924 -0.372390 204 51 127
-0.085986 0.637223 -0.529094 0 0 255
-0.154674 -0.140028 -0.464158 153 0 76
-0.515006 0.608611 0.140497 0 255 0
-0.307471 -0.660375 0.324641 204 51 127
0.553458 -0.182501 -0.128568 153 0 76
0.553458 -0.329601 0.034094 153 0 76
-0.469955 0.282255 -0.064131 0 0 255
-0.549473 0.094201 -0.050456 76 0 153
-0.469051 -0.566100 0.163441 76 153 0
0.454435 0.683179 0.489703 0 0 255
0.469170 -0.271924 0.412120 204 51 127
0.167939 -0.179068 -0.441180 153 0 76
-0.498932 -0.217035 0.316654 153 0 76
-0.353478 -0.660375 0.142111 204 51 127
-0.515006 -0.324485 0.432590 76 0 153
0.141955 0.075455 -0.328651 127 127 0
-0.308523 0.637223 0.466099 0 0 255
0.483178 0.629635 0.445520 127 127 0
-0.195955 -0.265547 -0.464158 153 0 76
0.496014 -0.462033 -0.463092 153 0 76
0.400228 -0.706330 0.226014 204 51 127
-0.039354 0.555011 -0.533069 127 0 127
-0.199481 -0.706330 0.388034 204 51 127
0.076336 0.170224 0.561246 204 51 127
-0.302268 -0.619304 0.123175 76 0 153
-0.341796 0.637223 -0.237825 0 0 255
-0.469051 0.256849 0.482560 204 51 127
0.518991 0.427245 0.050943 76 153 0
-0.316747 0.242013 0.500906 204 51 127
-0.240379 0.063967 -0.423766 127 127 0
-0.018022 -0.706330 -0.277083 204 51 127
0.553458 -0.591432 -0.077565 153 0 76
-0.549473 0.208639 -0.498294 76 0 153
0.553458 -0.509242 0.094257 153 0 76
-0.190469 0.683179 -0.496487 0 0 255
-0.363787 0.263794 0.561246 204 51 127
-0.000185 -0.619304 -0.237430 76 0 153
0.359142 -0.425671 0.561246 127 0 127
0.496013 -0.098146 0.397321 76 0 153
-0.445498 0.653573 0.523907 255 0 0
-0.128731 -0.619304 0.366982 76 0 153
0.549999 -0.197452 0.523907 153 0 76
-0.515006 0.532811 -0.496879 76 0 153
-0.397259 -0.174772 0.500906 76 0 153
0.462182 0.448672 -0.533069 127 0 127
-0.469051 -0.240787 -0.292351 153 76 0
0.002341 -0.271924 -0.410484 204 51 127
-0.321878 -0.633528 -0.464158 204 51 127
0.553458 -0.224310 0.395831 153 0 76
0.355317 0.683179 -0.530931 0 0 255
0.443174 -0.579391 0.526779 127 0 127
0.316058 0.382750 -0.487113 153 0 76
0.412298 0.683179 0.281915 0 0 255
0.481653 0.293881 0.561246 204 51 127
-0.306892 -0.706330 0.335737 204 51 127
-0.375697 0.422835 0.067687 0 127 127
0.409497 -0.271924 0.463099 204 51 127
-0.093057 -0.370374 0.526779 127 0 127
0.304328 -0.318626 0.526779 76 0 153
-0.509262 0.131892 -0.133861 76 0 153
-0.201986 -0.619304 -0.299562 76 0 153
0.553458 0.117140 -0.226407 153 0 76
0.013668 0.063967 0.058405 127 127 0
0.496013 -0.160008 -0.266072 76 0 153
-0.469051 -0.481731 0.463898 76 153 0
-0.224804 -0.116524 0.523884 76 0 153
-0.119727 0.683179 0.508850 0 0 255
0.366255 -0.493194 -0.464158 153 0 76
0.357683 -0.270190 0.500906 76 0 153
-0.549473 -0.222172 -0.102035 76 0 153
0.275276 0.422835 0.355953 0 127 127
-0.515006 -0.663989 0.302791 76 0 153
0.378734 -0.283413 0.387991 204 51 127
-0.058309 0.603254 -0.498602 127 0 127
0.482876 -0.599291 -0.533069 127 127 0
0.508573 -0.660375 0.151171 153 0 76
0.507827 0.683179 0.054358 0 0 255
0.518991 0.059768 0.186479 153 0 76
0.467781 -0.660375 0.270000 204 51 127
0.518991 0.308764 0.365496 153 0 76
0.553458 0.678913 0.041085 153 0 76
-0.360373 -0.175345 -0.487113 153 0 76
0.082855 -0.619304 -0.063862 76 0 153
0.518991 -0.128434 0.515096 153 0 76
-0.332385 -0.470924 0.561246 127 0 127
0.473036 -0.486545 -0.416430 0 127 127
0.074914 -0.283413 -0.249508 204 51 127
-0.184983 0.075455 -0.247029 127 127 0
-0.148723 -0.017315 0.533803 76 0 153
0.473036 -0.577657 0.045765 0 127 127
-0.076058 -0.155363 0.526779 76 0 153
0.043507 -0.428051 0.526779 127 0 127
-0.549473 -0.301705 0.315327 76 0 153
-0.515006 0.579976 -0.347401 76 0 153
0.473036 -0.214677 0.025782 76 0 153
0.212405 -0.630793 0.013004 76 0 153
0.473036 -0.510209 -0.213077 0 127 127
0.518991 0.173272 -0.239663 255 0 0
-0.549473 -0.461277 -0.233550 76 0 153
-0.435345 0.626312 0.561246 255 0 0
-0.469051 -0.456100 -0.039172 76 153 0
-0.062241 -0.103741 0.523884 76 0 153
0.473036 -0.192129 -0.391542 76 0 153
-0.207780 -0.066404 0.561246 76 0 153
0.553458 -0.648341 0.070327 153 0 76
-0.549473 0.649221 0.050352 76 0 153
-0.469051 0.192509 0.477945 0 0 255
0.518991 -0.375464 0.139327 153 0 76
-0.444976 -0.107218 -0.464158 153 0 76
0.041818 0.066410 0.561246 204 51 127
0.046879 -0.619304 -0.000711 76 0 153
0.349172 -0.706330 -0.157738 204 51 127
-0.037592 0.405194 0.561246 255 0 0
0.182876 0.487196 -0.533069 127 0 127
0.494882 -0.504793 0.561246 127 0 127
0.473036 0.081559 0.479578 204 51 127
0.124513 0.637223 -0.434440 0 0 255
0.170816 -0.175276 0.500906 76 0 153
0.366579 -0.660375 0.282474 204 51 127
0.518991 -0.428376 0.142594 153 0 76
0.204996 -0.574559 -0.464158 153 0 76
-0.008328 -0.271924 -0.331534 204 51 127
-0.338476 0.084983 0.561246 204 51 127
-0.540933 0.086351 0.523907 76 0 153
-0.549473 -0.410363 0.061665 76 0 153
0.439479 0.371105 0.561246 255 0 0
0.553458 0.582389 -0.444845 153 0 76
-0.492029 0.502537 -0.112617 76 0 153
0.518991 0.010256 0.000282 153 0 76
0.228946 0.637223 -0.141841 0 0 255
0.473036 0.276955 0.003755 255 0 0
-0.285081 0.637223 -0.434193 0 0 255
-0.453770 0.422835 0.235856 0 127 127
0.434809 -0.619304 -0.383461 76 0 153
0.448467 0.683179 -0.370949 0 0 255
0.473036 0.454030 0.416151 127 127 0
-0.456803 0.401382 0.526779 255 0 0
0.518991 -0.683451 -0.123774 153 0 76
-0.549473 0.353685 -0.231509 76 0 153
-0.549473 0.462256 -0.116829 76 0 153
-0.549473 -0.554545 0.250260 76 0 153
0.518991 0.100637 0.228160 255 0 0
-0.549473 -0.459881 -0.282216 76 0 153
0.473036 0.074924 -0.028978 127 127 0
0.344776 0.063967 0.207014 127 127 0
-0.490079 0.683179 0.436956 76 0 153
-0.549473 -0.308244 -0.087125 76 0 153
-0.480023 -0.660375 -0.245786 204 51 127
0.553458 0.260924 0.176891 153 0 76
-0.453198 -0.660375 0.360979 204 51 127
0.553458 -0.104223 0.095630 153 0 76
0.481829 0.283385 -0.498602 153 0 76
-0.515006 0.239655 0.246553 76 0 153
-0.469051 0.505421 0.320803 0 255 0
0.502911 0.683179 0.157488 0 0 255
0.518991 0.245987 -0.012039 153 0 76
0.473036 0.566382 0.405804 127 127 0
0.126992 0.637223 -0.077692 0 0 255
0.553458 -0.089213 0.357173 153 0 76
0.465396 0.601535 -0.533069 127 0 127
0.360396 -0.260627 0.561246 76 0 153
-0.042075 -0.085895 -0.441180 153 0 76
0.307796 -0.706330 0.026795 204 51 127
0.223347 -0.706330 0.091531 204 51 127
0.518991 0.047643 -0.439457 153 0 76
-0.193039 0.188906 0.561246 204 51 127
0.099400 -0.083100 0.561246 76 0 153
-0.412287 -0.660375 -0.272727 204 51 127
-0.515006 0.552206 -0.170929 76 0 153
0.000794 -0.611923 -0.533069 127 127 0
-0.515006 -0.032080 0.448772 76 0 153
0.206384 0.628779 -0.533069 0 0 255
-0.515006 -0.212412 -0.470585 76 0 153
0.426242 -0.406547 0.561246 127 0 127
0.217532 -0.706330 0.156255 204 51 127
0.295698 -0.617892 -0.498602 153 0 76
0.158450 -0.481645 0.526779 127 0 127
-0.515006 -0.678111 0.342385 204 51 127
0.496013 0.195700 0.137795 255 0 0
-0.170547 -0.706330 -0.073392 204 51 127
-0.282499 -0.497892 -0.533069 127 127 0
0.553458 0.515114 -0.458394 153 0 76
0.518991 0.586152 0.036885 153 0 76
-0.268603 -0.619304 -0.004180 76 0 153
-0.549473 0.035432 -0.517043 76 0 153
0.446118 -0.169446 -0.464158 153 0 76
0.417510 0.683179 0.004364 0 0 255
-0.469556 -0.412505 0.070887 76 153 0
0.448954 -0.457864 0.620618 255 0 0
0.011169 0.564454 0.561246 255 0 0
0.206799 0.422835 -0.078409 0 127 127
-0.515006 0.223903 -0.458048 0 255 0
-0.378369 -0.283413 0.362915 204 51 127
0.265875 0.470120 0.561246 255 0 0
0.518991 0.011187 0.167627 153 0 76
0.553458 -0.293123 0.190719 153 0 76
-0.526948 0.576967 0.526779 255 0 0
-0.549473 0.452298 0.305980 76 0 153
-0.266099 -0.585211 -0.498602 153 0 76
0.473036 -0.242814 -0.252215 76 0 153
0.194629 0.683179 -0.441252 0 0 255
0.496013 -0.170409 -0.190303 76 0 153
-0.099377 0.164459 -0.464158 0 255 0
-0.455328 0.129830 -0.464158 0 255 0
-0.515006 -0.369334 0.329183 76 0 153
0.273983 -0.619304 0.493728 127 0 127
0.473036 0.454538 0.334724 127 127 0
0.353501 0.063967 -0.156534 127 127 0
0.509176 0.101700 0.561246 204 51 127
-0.154203 -0.454005 -0.498602 153 0 76
-0.515006 0.638764 0.070393 0 0 255
-0.469051 0.221750 -0.064352 0 0 255
0.502608 -0.268228 0.138819 76 0 153
0.521627 -0.463962 0.526779 153 0 76
-0.549473 0.492927 -0.031925 76 0 153
0.071868 0.411346 0.277651 0 127 127
-0.549473 -0.410000 -0.464064 76 0 153
-0.511169 -0.660375 0.117624 204 51 127
-0.064708 0.411346 -0.009299 0 127 127
-0.549473 0.643661 0.129021 76 0 153
-0.549473 -0.068615 0.385005 76 0 153
0.396308 0.563482 -0.533069 127 0 127
0.518991 -0.372613 0.022434 153 0 76
0.519000 -0.706330 -0.360446 153 0 76
-0.086240 0.411346 -0.282373 0 127 127
-0.435032 -0.693563 -0.533069 204 51 127
-0.527363 -0.636831 -0.533069 76 0 153
-0.062007 0.063967 -0.039435 127 127 0
-0.247854 0.422835 -0.265362 0 127 127
-0.324536 -0.283413 0.262139 204 51 127
-0.172991 -0.660375 0.063765 204 51 127
-0.092584 -0.237042 -0.441180 153 0 76
-0.515006 0.170137 -0.012672 76 0 153
0.180486 -0.670788 0.561246 127 0 127
-0.523227 0.249725 0.561246 204 51 127
0.553458 0.435987 -0.466405 153 0 76
0.414588 -0.249958 -0.441180 153 0 76
0.022653 0.440711 0.526779 255 0 0
0.025051 0.493258 -0.464158 127 0 127
0.425235 0.439105 0.526779 255 0 0
-0.515006 0.415946 0.198731 153 0 76
-0.549473 0.386093 -0.000046 76 0 153
-0.469051 -0.213331 -0.010002 153 76 0
-0.347571 0.075455 0.087169 127 127 0
0.518991 -0.128604 -0.025402 153 0 76
0.553458 -0.561193 0.064664 153 0 76
-0.506390 -0.249603 -0.086294 153 0 76
0.496013 0.540462 -0.224397 127 127 0
-0.492029 -0.282597 -0.392851 153 76 0
0.393278 0.411346 0.192026 0 127 127
-0.515006 0.657785 0.207545 0 0 255
0.027790 -0.706330 0.021587 204 51 127
0.259612 0.422835 0.478978 0 127 127
0.015752 0.683179 -0.234888 0 0 255
-0.380786 -0.405538 -0.498602 153 0 76
-0.050209 -0.228904 0.561246 76 0 153
0.249060 -0.660375 0.121658 204 51 127
0.420692 -0.706330 -0.455944 204 51 127
0.314549 -0.667036 -0.533069 127 127 0
0.553458 -0.025439 -0.197024 153 0 76
-0.105916 0.236174 -0.487113 153 0 76
0.455553 0.075455 -0.140593 255 0 0
0.518991 -0.438841 -0.441284 153 0 76
-0.363056 0.411346 -0.236851 0 127 127
-0.515006 -0.016170 0.227327 76 0 153
-0.515006 0.257925 -0.154575 76 0 153
0.482595 0.683179 -0.098243 0 0 255
0.180892 -0.102493 -0.441180 153 0 76
0.517483 0.656066 -0.533069 0 0 255
0.553458 0.006625 0.384288 153 0 76
-0.176257 0.422835 -0.356065 0 127 127
0.124022 -0.283413 -0.421220 204 51 127
0.518991 0.245763 0.455792 153 0 76
0.553458 0.181655 0.088825 153 0 76
-0.467721 0.063967 0.416521 127 127 0
-0.515006 0.223456 0.144110 76 0 153
-0.515006 0.081412 0.077785 76 0 153
0.496013 -0.546179 -0.326292 0 127 127
-0.386886 -0.318487 0.561246 76 0 153
-0.549473 -0.195205 -0.050696 76 0 153
-0.549473 0.524056 -0.369682 76 0 153
0.444910 0.422835 -0.239724 0 127 127
0.473036 -0.152674 -0.341987 76 0 153
-0.094622 0.637223 0.266882 0 0 255
-0.081385 0.563133 -0.533069 127 0 127
0.553458 -0.462957 -0.419558 153 0 76
-0.099515 0.652038 0.526779 0 0 255
-0.389224 0.441831 -0.441180 0 127 127
0.518991 0.032964 0.424589 153 0 76
-0.503977 -0.564415 -0.396332 76 0 153
0.236630 -0.381021 -0.498602 153 0 76
-0.549473 0.209470 -0.140758 76 0 153
0.496013 0.461225 0.169419 76 153 0
0.213682 0.505235 0.523884 255 0 0
0.553458 0.464985 -0.276211 153 0 76
0.510374 0.107783 0.119765 153 0 76
0.518991 0.111618 -0.137173 153 0 76
-0.213325 0.451578 -0.441180 127 0 127
0.155472 -0.706330 -0.029273 204 51 127
0.518991 0.303935 0.050063 153 0 76
0.027235 -0.465208 -0.441180 153 0 76
0.152119 0.113538 -0.498602 153 0 76
-0.437330 0.637223 0.404360 0 0 255
0.425188 -0.271924 -0.410244 204 51 127
0.128587 0.335809 0.553573 255 0 0
-0.515518 0.140989 0.526779 76 0 153
0.324937 0.440754 -0.533069 127 0 127
-0.469051 0.172708 -0.348854 0 0 255
-0.047508 0.063967 0.390126 127 127 0
-0.465285 -0.616843 -0.464158 153 0 76
-0.549473 -0.110247 0.317046 76 0 153
-0.097026 -0.630793 -0.045051 76 0 153
0.510374 -0.241723 0.472849 153 0 76
-0.469051 -0.218051 -0.368037 153 76 0
-0.352865 -0.625879 0.561246 127 0 127
-0.475535 -0.226741 0.561246 76 0 153
-0.549473 -0.512507 0.024114 76 0 153
-0.116014 0.529721 -0.498602 153 0 76
-0.515006 0.472896 0.017485 76 0 153
0.059221 0.499479 -0.498602 153 0 76
0.553458 -0.116876 0.004173 153 0 76
-0.244167 -0.660375 0.062736 204 51 127
0.518991 -0.195467 0.359447 153 0 76
-0.327538 0.602032 0.526779 255 0 0
-0.175601 -0.092243 0.561246 76 0 153
-0.032694 0.053145 -0.498602 153 0 76
-0.417092 0.512498 -0.533069 127 0 127
0.455715 0.422835 0.311779 0 127 127
0.347496 0.637223 0.416114 0 0 255
-0.224444 0.683179 -0.365540 0 0 255
-0.515006 -0.045423 -0.042019 76 0 153
0.473036 0.158765 -0.214334 255 0 0
-0.155456 0.063967 -0.369687 127 127 0
-0.469051 0.261364 0.430583 0 0 255
0.364235 -0.660375 0.176467 204 51 127
-0.096256 -0.091850 0.620457 0 127 127
-0.549473 -0.011742 0.172036 76 0 153
-0.474358 0.683179 -0.186993 0 0 255
-0.179538 0.683179 0.001075 0 0 255
-0.118901 -0.706330 0.493051 204 51 127
-0.377094 0.063967 0.412316 127 127 0
-0.398917 -0.595003 -0.498602 127 127 0
-0.441319 0.422835 -0.384399 0 127 127
-0.035352 -0.183372 -0.441180 153 0 76
-0.469051 0.487005 0.002191 0 255 0
0.185487 0.285579 -0.498602 153 0 76
-0.070932 -0.300224 0.561246 76 0 153
0.019567 0.422835 0.127501 0 127 127
-0.085803 0.078335 -0.498602 153 0 76
-0.001749 -0.619304 -0.130541 76 0 153
0.178319 0.109279 -0.441180 0 255 0
-0.549473 0.610406 -0.126279 76 0 153
-0.125663 -0.630793 0.181527 76 0 153
0.128087 0.422835 -0.317984 0 127 127
-0.549473 0.578217 -0.297402 76 0 153
-0.195015 -0.223406 -0.464158 153 0 76
0.473036 0.079733 -0.306323 255 0 0
0.312758 -0.533275 0.523884 127 0 127
0.469454 0.683179 -0.152172 0 0 255
0.521053 -0.604193 -0.533069 153 0 76
0.511098 0.480358 0.088823 76 153 0
-0.515006 0.393481 -0.103202 76 0 153
0.290315 0.519082 -0.464158 127 0 127
0.518991 -0.675711 0.275160 204 51 127
0.092618 0.413560 0.561246 255 0 0
-0.515006 -0.038938 0.488076 76 0 153
-0.037423 0.411346 0.281567 0 127 127
0.516183 0.045867 0.526779 204 51 127
-0.103994 -0.706330 0.301530 204 51 127
0.217104 0.063967 -0.176050 127 127 0
-0.359020 -0.283413 0.443048 204 51 127
0.473036 -0.114387 0.261543 76 0 153
-0.348774 0.683179 0.361631 0 0 255
0.408238 0.063967 0.176221 127 127 0
0.518991 0.198592 -0.273848 153 0 76
0.289322 0.411346 0.271482 0 127 127
-0.515006 0.600032 0.030197 76 0 153
-0.445761 0.568755 -0.441180 127 0 127
-0.234113 0.581769 -0.498602 127 0 127
-0.100540 0.422835 -0.220444 0 127 127
0.260882 0.326074 -0.498602 153 0 76
-0.257743 -0.498972 -0.441180 153 0 76
-0.549473 -0.201387 -0.360500 76 0 153
-0.177851 -0.559320 -0.464158 153 0 76
0.399052 -0.365904 0.561246 127 0 127
-0.549473 0.045889 0.359467 76 0 153
-0.282864 0.683179 -0.216803 0 0 255
-0.188155 -0.619304 0.246452 76 0 153
-0.137265 -0.619304 -0.188660 76 0 153
-0.502779 -0.227203 -0.242317 153 76 0
-0.190190 0.174703 -0.498602 153 0 76
-0.424758 -0.583475 -0.533069 127 127 0
0.441309 -0.660375 0.306424 204 51 127
-0.549473 -0.291385 -0.313212 76 0 153
-0.321934 0.079408 0.523884 204 51 127
-0.308768 -0.706330 -0.055772 204 51 127
-0.469051 0.592635 -0.257961 0 255 0
-0.515006 -0.097539 0.047208 76 0 153
0.549932 -0.536660 -0.533069 127 127 0
-0.220081 0.422835 0.484765 0 127 127
-0.499160 0.475660 -0.498602 153 0 76
-0.033065 -0.283413 -0.268568 204 51 127
-0.332600 0.075455 0.156154 127 127 0
-0.515006 0.499082 -0.287752 153 0 76
0.398376 -0.660375 -0.152714 204 51 127
0.481547 0.637223 -0.245946 127 127 0
0.553458 -0.228873 -0.091964 153 0 76
-0.106589 0.145200 0.561246 204 51 127
0.440541 -0.139444 -0.498602 153 0 76
0.262354 0.165940 -0.441180 0 255 0
0.292190 0.236534 0.523884 204 51 127
-0.496506 -0.214402 0.404124 153 76 0
-0.285390 -0.108467 -0.464158 153 0 76
0.270896 0.075455 0.485088 127 127 0
-0.515006 0.231317 0.521083 204 51 127
0.313020 0.422835 0.078053 0 127 127
0.347461 -0.204570 -0.464158 153 0 76
0.518991 0.151383 0.016307 153 0 76
0.553458 0.629321 0.432948 153 0 76
-0.334118 0.637223 -0.175074 0 0 255
-0.139934 -0.377254 0.561246 127 0 127
0.496013 -0.156462 -0.001194 76 0 153
-0.490422 -0.706330 0.354654 204 51 127
0.496013 0.478169 0.043514 127 127 0
-0.430305 0.246476 -0.464158 0 255 0
0.034713 -0.660375 -0.511245 127 127 0
0.496013 -0.104387 -0.246714 76 0 153
0.473036 0.577068 -0.004279 127 127 0
0.473036 -0.595859 0.309263 0 127 127
-0.139028 -0.271924 -0.331559 204 51 127
0.020082 -0.660375 -0.457986 204 51 127
0.307951 -0.660375 0.010354 76 0 153
0.258531 0.075455 -0.089628 127 127 0
-0.549473 0.382502 0.194208 76 0 153
-0.099271 -0.443057 -0.533069 127 127 0
0.553458 0.226820 -0.474434 153 0 76
-0.250630 -0.441243 0.608559 255 0 0
-0.216118 -0.630793 -0.434607 76 0 153
-0.007422 0.275643 0.523884 204 51 127
-0.390832 -0.706330 -0.511961 204 51 127
-0.515006 0.118682 0.257035 76 0 153
-0.148604 0.090926 0.561246 204 51 127
0.358798 -0.489066 0.526779 127 0 127
-0.262946 -0.606414 0.561246 127 0 127
-0.515006 -0.381002 -0.109279 76 0 153
0.553458 0.373867 -0.100060 153 0 76
-0.006573 -0.430597 -0.525740 127 127 0
-0.341168 0.560007 -0.464158 153 0 76
-0.362689 -0.706330 0.499673 204 51 127
-0.515006 -0.646593 0.416526 76 0 153
0.263914 -0.283413 0.149730 204 51 127
0.553458 -0.023008 0.159068 153 0 76
0.553458 0.526595 -0.526927 153 0 76
0.518991 0.530292 -0.492517 153 0 76
-0.068667 -0.209539 -0.464158 153 0 76
-0.205634 -0.660375 -0.094465 204 51 127
-0.238146 -0.283366 -0.487113 153 0 76
-0.492029 0.467847 -0.138972 153 0 76
-0.515006 -0.562765 0.168630 76 0 153
0.180128 -0.660375 -0.347961 204 51 127
-0.549473 -0.287379 0.036674 76 0 153
0.377539 -0.660375 0.097020 204 51 127
-0.469051 0.105688 -0.390260 0 0 255
-0.046116 -0.578810 -0.498602 127 127 0
0.399864 0.506606 -0.533069 127 0 127
0.087577 0.063967 -0.025099 127 127 0
0.264084 -0.430597 -0.531251 127 127 0
0.448992 -0.223205 -0.498602 153 0 76
-0.515006 0.389350 0.388260 76 0 153
-0.409439 -0.154295 -0.464158 153 0 76
0.553458 0.508453 -0.127101 153 0 76
0.302869 0.075455 0.456726 127 127 0
-0.515006 -0.376504 0.368342 76 0 153
0.144268 -0.619304 0.430530 76 0 153
0.390903 0.062997 0.523884 204 51 127
-0.177945 -0.149951 0.523884 76 0 153
-0.463903 0.683179 -0.489793 0 0 255
-0.479451 0.608423 -0.464158 153 0 76
-0.068122 -0.660375 0.446043 204 51 127
0.518991 -0.490560 -0.460164 153 0 76
-0.241885 -0.660375 0.382277 204 51 127
-0.482318 -0.642282 0.235618 76 153 0
-0.387132 0.277150 -0.441180 0 255 0
0.410834 -0.660375 -0.208260 204 51 127
0.108164 -0.381395 0.561246 127 0 127
0.354022 -0.619304 -0.145623 76 0 153
-0.441548 0.319326 0.561246 204 51 127
-0.469051 -0.150530 0.494736 76 0 153
-0.441024 -0.619304 0.134692 76 0 153
0.222807 -0.619304 -0.357308 76 0 153
-0.160099 0.075455 0.349059 127 127 0
0.516656 0.683179 -0.367225 0 0 255
-0.515006 0.196925 0.387267 76 0 153
0.250101 -0.660375 -0.452148 204 51 127
0.275497 -0.706330 -0.047419 204 51 127
-0.445491 -0.706330 0.484254 204 51 127
0.183180 0.683179 0.018683 0 0 255
-0.301564 0.308618 0.526779 204 51 127
-0.492029 -0.463657 0.239296 76 153 0
-0.306336 -0.283413 0.151101 204 51 127
0.048808 -0.619304 -0.238687 76 0 153
0.484386 -0.660375 -0.056334 204 51 127
-0.226821 0.411346 -0.009237 0 127 127
0.483241 -0.412505 -0.399940 0 127 127
0.408102 -0.554530 -0.487113 127 127 0
0.553458 0.298628 -0.495910 153 0 76
-0.333944 0.590265 -0.441180 127 0 127
0.185819 -0.271924 -0.406652 204 51 127
-0.549473 -0.154350 -0.142043 76 0 153
-0.341266 0.422835 -0.055064 0 127 127
-0.515006 -0.152986 -0.388633 76 0 153
0.229621 0.151459 -0.487113 153 0 76
0.553458 -0.376363 0.205381 153 0 76
0.206013 -0.237477 0.526779 76 0 153
0.294148 -0.271924 0.208105 204 51 127
-0.515006 -0.486996 0.451704 76 0 153
-0.549473 0.602532 -0.176975 76 0 153
-0.515006 0.350168 -0.016151 76 0 153
-0.145063 0.075455 0.187047 127 127 0
-0.469051 0.602826 0.286125 0 255 0
0.553458 -0.601406 0.108187 153 0 76
-0.515006 -0.407230 -0.282803 76 0 153
0.292193 0.075455 0.322100 127 127 0
-0.408591 -0.030662 0.561246 76 0 153
0.473036 0.151399 -0.019596 255 0 0
0.427324 -0.660375 -0.289603 204 51 127
0.060719 0.683179 -0.020681 0 0 255
0.553458 -0.482448 -0.125864 153 0 76
-0.021047 -0.592737 -0.464158 153 0 76
-0.499361 -0.561782 -0.462460 127 127 0
-0.216466 0.075455 0.164142 127 127 0
-0.098325 0.526661 -0.464158 127 0 127
-0.174018 -0.208687 0.526779 76 0 153
-0.469051 -0.291995 0.410837 153 76 0
-0.097950 -0.696709 0.561246 127 0 127
-0.390278 -0.706330 -0.037362 204 51 127
-0.463574 0.054421 0.561246 204 51 127
0.073753 0.683179 0.180611 0 0 255
-0.468921 -0.660375 -0.097949 76 153 0
-0.474284 -0.706330 0.406361 204 51 127
0.138232 -0.706330 -0.244661 204 51 127
-0.515006 -0.153467 -0.038897 76 0 153
0.064116 -0.271924 -0.083543 204 51 127
0.161570 0.199014 -0.487113 153 0 76
-0.103095 0.637223 -0.070650 0 0 255
0.518991 -0.523623 -0.292358 153 0 76
-0.112188 0.075455 -0.151679 127 127 0
0.121769 0.637223 0.364942 0 0 255
0.553458 0.044466 0.232963 153 0 76
-0.357995 0.075455 0.005807 127 127 0
-0.331321 -0.188805 0.526779 76 0 153
-0.549473 -0.511349 0.281439 76 0 153
0.452562 -0.703574 0.561246 127 0 127
0.126131 -0.623673 -0.533069 127 127 0
0.553458 0.387458 0.084336 153 0 76
0.104324 0.637223 0.416130 0 0 255
0.431447 0.422835 0.114883 0 127 127
-0.122582 -0.307277 -0.487113 153 0 76
0.553458 0.144177 0.433474 153 0 76
0.230375 -0.101862 0.561246 76 0 153
-0.332030 0.411346 0.078884 0 127 127
0.553458 -0.439734 0.371126 153 0 76
-0.492029 0.495816 -0.215064 76 0 153
0.242311 -0.283413 -0.015380 204 51 127
-0.469051 -0.529399 -0.119416 76 153 0
-0.481342 0.399858 0.063637 0 255 0
0.155967 -0.271924 -0.126358 204 51 127
0.144198 -0.440456 -0.464158 153 0 76
-0.393465 -0.630793 -0.400463 76 0 153
-0.340847 -0.699745 0.561246 127 0 127
-0.268579 0.451262 -0.533069 127 0 127
-0.351997 0.536747 0.561246 255 0 0
0.476039 -0.282777 -0.464158 153 0 76
0.553458 0.348855 0.018028 153 0 76
0.460515 -0.449268 0.523884 127 0 127
-0.492029 -0.116517 -0.035167 153 76 0
-0.549473 0.098670 -0.507696 76 0 153
0.205653 0.596033 0.625452 76 0 153
-0.368012 -0.546014 0.500906 127 0 127
-0.549473 0.298297 -0.192640 76 0 153
0.553458 -0.364543 0.353465 153 0 76
0.105410 -0.660375 -0.278399 204 51 127
-0.515006 0.615261 -0.224854 0 255 0
-0.266357 0.647903 0.526779 0 0 255
-0.515006 -0.153167 -0.281065 76 0 153
0.553458 -0.003673 -0.362515 153 0 76
-0.278600 0.262451 0.526779 204 51 127
0.496013 0.249296 0.066630 153 0 76
0.217005 -0.490336 -0.533069 127 127 0
-0.347198 -0.412505 0.522279 127 0 127
-0.338512 -0.630793 -0.035361 76 0 153
-0.469051 0.237320 0.106823 0 0 255
0.553458 0.179409 0.168458 153 0 76
0.102734 0.411346 0.329075 0 127 127
-0.239103 -0.706330 -0.034162 204 51 127
0.309241 0.411346 0.124640 0 127 127
-0.228278 0.075455 0.115451 127 127 0
-0.549473 -0.611429 0.368589 76 0 153
0.121971 0.150126 0.523884 204 51 127
-0.547936 0.683180 0.419802 76 0 153
0.553458 -0.489840 -0.377355 153 0 76
0.025971 -0.067461 -0.464158 153 0 76
-0.454235 -0.273224 0.526779 76 0 153
-0.117020 -0.623301 0.523884 127 0 127
-0.549473 -0.303980 0.229238 76 0 153
-0.048652 -0.619304 0.283475 76 0 153
-0.540646 0.473303 0.526779 76 0 153
-0.029456 0.633945 -0.498602 127 0 127
-0.122110 -0.660375 -0.397491 204 51 127
0.114511 -0.660375 0.382954 204 51 127
-0.309420 0.209758 0.526779 204 51 127
-0.492029 0.424788 -0.454866 127 0 127
-0.549473 -0.468200 0.080473 76 0 153
-0.094584 0.422835 0.399660 0 127 127
-0.149763 0.683179 -0.244433 0 0 255
-0.138992 0.443911 0.500906 255 0 0
-0.124039 0.334569 -0.487113 153 0 76
-0.051362 -0.537340 0.500906 127 0 127
0.207483 -0.231034 -0.498602 153 0 76
-0.515006 0.144764 -0.300137 76 0 153
0.553458 -0.159751 -0.253693 153 0 76
0.496013 0.054737 0.392085 255 0 0
0.553458 0.506373 0.020220 153 0 76
-0.206748 -0.283413 0.066968 204 51 127
0.290171 -0.630793 -0.106856 76 0 153
0.189586 0.524516 0.561246 255 0 0
0.089070 0.229976 0.523884 204 51 127
-0.219123 -0.423017 -0.441180 153 0 76
0.269059 -0.192982 0.523884 76 0 153
-0.515006 0.028993 -0.055837 76 0 153
0.221231 -0.343605 0.561246 76 0 153
-0.469051 -0.562585 -0.016398 76 153 0
0.524377 -0.237408 0.561246 76 0 153
-0.515006 -0.373865 -0.002409 76 0 153
0.518991 0.560243 -0.173536 153 0 76
0.553458 -0.384569 -0.280501 153 0 76
0.270552 -0.660375 0.490451 204 51 127
-0.279122 -0.271924 0.195381 204 51 127
0.229399 -0.399253 0.526779 127 0 127
